-18.49 -2.0263 4
-19.356 -1.5263 4
-20.222 -1.0263 4
-21.088 -0.52628 4
-21.954 -0.026279 4
-22.821 0.47372 4
33.471 -32.026 5
28.275 -29.026 5
27.409 -28.526 5
26.543 -28.026 5
25.677 -27.526 5
24.811 -27.026 5
23.945 -26.526 5
23.079 -26.026 5
22.213 -25.526 5
21.347 -25.026 5
20.481 -24.526 5
19.615 -24.026 5
18.749 -23.526 5
17.883 -23.026 5
5.7583 -16.026 5
-10.696 -6.5263 5
-11.562 -6.0263 5
-16.758 -3.0263 5
-17.624 -2.5263 5
-19.356 -1.5263 5
-20.222 -1.0263 5
-21.088 -0.52628 5
-21.954 -0.026279 5
-22.821 0.47372 5
-23.687 0.97372 5
-24.553 1.4737 5
-25.419 1.9737 5
34.337 -32.526 6
28.275 -29.026 6
27.409 -28.526 6
5.7583 -16.026 6
4.8923 -15.526 6
-10.696 -6.5263 6
-17.624 -2.5263 6
-18.49 -2.0263 6
-21.954 -0.026279 6
-24.553 1.4737 6
-25.419 1.9737 6
-26.285 2.4737 6
-27.151 2.9737 6
34.337 -32.526 7
27.409 -28.526 7
20.481 -24.526 7
19.615 -24.026 7
5.7583 -16.026 7
4.8923 -15.526 7
-10.696 -6.5263 7
-11.562 -6.0263 7
-21.088 -0.52628 7
-21.954 -0.026279 7
-24.553 1.4737 7
-25.419 1.9737 7
-26.285 2.4737 7
-27.151 2.9737 7
-28.017 3.4737 7
34.337 -32.526 8
27.409 -28.526 8
21.347 -25.026 8
20.481 -24.526 8
5.7583 -16.026 8
4.8923 -15.526 8
-7.2321 -8.5263 8
-8.0981 -8.0263 8
-8.9641 -7.5263 8
-9.8301 -7.0263 8
-10.696 -6.5263 8
-21.088 -0.52628 8
-21.954 -0.026279 8
-25.419 1.9737 8
34.337 -32.526 9
33.471 -32.026 9
28.275 -29.026 9
27.409 -28.526 9
22.213 -25.526 9
7.4904 -17.026 9
6.6244 -16.526 9
5.7583 -16.026 9
4.8923 -15.526 9
4.0263 -15.026 9
3.1603 -14.526 9
2.2942 -14.026 9
1.4282 -13.526 9
0.56218 -13.026 9
-0.30385 -12.526 9
-1.1699 -12.026 9
-2.0359 -11.526 9
-2.9019 -11.026 9
-3.7679 -10.526 9
-4.634 -10.026 9
-5.5 -9.5263 9
-6.366 -9.0263 9
-7.2321 -8.5263 9
-20.222 -1.0263 9
-21.088 -0.52628 9
-21.954 -0.026279 9
-25.419 1.9737 9
33.471 -32.026 10
32.605 -31.526 10
29.141 -29.526 10
28.275 -29.026 10
23.079 -26.026 10
22.213 -25.526 10
7.4904 -17.026 10
-1.1699 -12.026 10
-17.624 -2.5263 10
-18.49 -2.0263 10
-19.356 -1.5263 10
-20.222 -1.0263 10
-21.088 -0.52628 10
-21.954 -0.026279 10
-24.553 1.4737 10
-25.419 1.9737 10
32.605 -31.526 11
31.739 -31.026 11
30.873 -30.526 11
30.007 -30.026 11
29.141 -29.526 11
23.079 -26.026 11
22.213 -25.526 11
21.347 -25.026 11
7.4904 -17.026 11
-1.1699 -12.026 11
-14.16 -4.5263 11
-15.026 -4.0263 11
-15.892 -3.5263 11
-16.758 -3.0263 11
-17.624 -2.5263 11
-18.49 -2.0263 11
-19.356 -1.5263 11
-20.222 -1.0263 11
23.079 -26.026 12
22.213 -25.526 12
21.347 -25.026 12
7.4904 -17.026 12
-1.1699 -12.026 12
-8.0981 -8.0263 12
-8.9641 -7.5263 12
-9.8301 -7.0263 12
-10.696 -6.5263 12
-11.562 -6.0263 12
-12.428 -5.5263 12
-13.294 -5.0263 12
-14.16 -4.5263 12
-15.026 -4.0263 12
-15.892 -3.5263 12
23.079 -26.026 13
22.213 -25.526 13
21.347 -25.026 13
7.4904 -17.026 13
4.0263 -15.026 13
3.1603 -14.526 13
2.2942 -14.026 13
1.4282 -13.526 13
0.56218 -13.026 13
-0.30385 -12.526 13
-1.1699 -12.026 13
-2.0359 -11.526 13
-2.9019 -11.026 13
-3.7679 -10.526 13
-4.634 -10.026 13
-5.5 -9.5263 13
-6.366 -9.0263 13
-7.2321 -8.5263 13
-8.0981 -8.0263 13
-8.9641 -7.5263 13
-9.8301 -7.0263 13
-10.696 -6.5263 13
23.079 -26.026 14
22.213 -25.526 14
21.347 -25.026 14
16.151 -22.026 14
15.285 -21.526 14
14.419 -21.026 14
13.553 -20.526 14
12.687 -20.026 14
11.821 -19.526 14
10.954 -19.026 14
10.088 -18.526 14
9.2224 -18.026 14
8.3564 -17.526 14
7.4904 -17.026 14
6.6244 -16.526 14
5.7583 -16.026 14
4.8923 -15.526 14
4.0263 -15.026 14
3.1603 -14.526 14
2.2942 -14.026 14
1.4282 -13.526 14
0.56218 -13.026 14
-0.30385 -12.526 14
21.347 -25.026 15
20.481 -24.526 15
19.615 -24.026 15
18.749 -23.526 15
17.883 -23.026 15
17.017 -22.526 15
-24.187 0.1077 -11
-25.053 0.6077 -11
-25.919 1.1077 -11
-26.785 1.6077 -11
-27.651 2.1077 -11
-28.517 2.6077 -11
-29.383 3.1077 -11
-30.249 3.6077 -11
-31.115 4.1077 -11
-25.053 0.6077 -10
-25.919 1.1077 -10
-26.785 1.6077 -10
-27.651 2.1077 -10
-28.517 2.6077 -10
-30.249 3.6077 -10
-31.115 4.1077 -10
-31.981 4.6077 -10
-32.847 5.1077 -9
-33.713 5.6077 -9
-34.579 6.1077 -9
-35.445 6.6077 -9
-36.311 7.1077 -9
-37.177 7.6077 -9
-37.177 7.6077 -8
-38.043 8.1077 -8
-38.909 8.6077 -8
-38.909 8.6077 -7
-39.775 9.1077 -7
-40.641 9.6077 -7
-41.507 10.108 -7
-42.373 10.608 -7
-42.373 10.608 -6
-43.239 11.108 -6
-41.507 10.108 -5
-42.373 10.608 -5
-43.239 11.108 -5
-39.775 9.1077 -4
-40.641 9.6077 -4
-41.507 10.108 -4
-42.373 10.608 -4
-43.239 11.108 -4
17.383 -23.892 -3
16.517 -23.392 -3
-38.043 8.1077 -3
-38.909 8.6077 -3
-39.775 9.1077 -3
-40.641 9.6077 -3
19.981 -25.392 -2
19.115 -24.892 -2
18.249 -24.392 -2
17.383 -23.892 -2
-36.311 7.1077 -2
-37.177 7.6077 -2
-38.043 8.1077 -2
-38.909 8.6077 -2
21.713 -26.392 -1
20.847 -25.892 -1
19.981 -25.392 -1
-36.311 7.1077 -1
-37.177 7.6077 -1
-38.043 8.1077 -1
-38.909 8.6077 -1
-39.775 9.1077 -1
24.311 -27.892 -2.1431e-015
23.445 -27.392 -2.0819e-015
22.579 -26.892 -2.0207e-015
-33.713 5.6077 1.9594e-015
-34.579 6.1077 2.0207e-015
-35.445 6.6077 2.0819e-015
-36.311 7.1077 2.1431e-015
-37.177 7.6077 2.2044e-015
-38.043 8.1077 2.2656e-015
-38.909 8.6077 2.3268e-015
-40.641 9.6077 2.4493e-015
26.909 -29.392 1
26.043 -28.892 1
25.177 -28.392 1
24.311 -27.892 1
2.6603 -15.392 1
1.7942 -14.892 1
0.9282 -14.392 1
0.062178 -13.892 1
-0.80385 -13.392 1
-1.6699 -12.892 1
-2.5359 -12.392 1
-3.4019 -11.892 1
-4.2679 -11.392 1
-5.134 -10.892 1
-6 -10.392 1
-6.866 -9.8923 1
-7.7321 -9.3923 1
-8.5981 -8.8923 1
-9.4641 -8.3923 1
-10.33 -7.8923 1
-28.517 2.6077 1
-29.383 3.1077 1
-30.249 3.6077 1
-31.115 4.1077 1
-31.981 4.6077 1
-32.847 5.1077 1
-33.713 5.6077 1
28.641 -30.392 2
27.775 -29.892 2
26.909 -29.392 2
4.3923 -16.392 2
3.5263 -15.892 2
-9.4641 -8.3923 2
-10.33 -7.8923 2
-16.392 -4.3923 2
-17.258 -3.8923 2
-18.124 -3.3923 2
-18.99 -2.8923 2
-19.856 -2.3923 2
-20.722 -1.8923 2
-21.588 -1.3923 2
-22.454 -0.8923 2
-23.321 -0.3923 2
-24.187 0.1077 2
-25.053 0.6077 2
-25.919 1.1077 2
-26.785 1.6077 2
-27.651 2.1077 2
-28.517 2.6077 2
28.641 -30.392 3
4.3923 -16.392 3
3.5263 -15.892 3
0.062178 -13.892 3
-0.80385 -13.392 3
-1.6699 -12.892 3
-2.5359 -12.392 3
-3.4019 -11.892 3
-4.2679 -11.392 3
-5.134 -10.892 3
-6 -10.392 3
-6.866 -9.8923 3
-7.7321 -9.3923 3
-8.5981 -8.8923 3
-9.4641 -8.3923 3
-10.33 -7.8923 3
-11.196 -7.3923 3
-12.062 -6.8923 3
-12.928 -6.3923 3
-13.794 -5.8923 3
-14.66 -5.3923 3
-15.526 -4.8923 3
-16.392 -4.3923 3
-18.124 -3.3923 3
-18.99 -2.8923 3
-19.856 -2.3923 3
-20.722 -1.8923 3
-21.588 -1.3923 3
32.971 -32.892 4
32.105 -32.392 4
31.239 -31.892 4
30.373 -31.392 4
29.507 -30.892 4
28.641 -30.392 4
27.775 -29.892 4
16.517 -23.392 4
15.651 -22.892 4
14.785 -22.392 4
13.919 -21.892 4
13.053 -21.392 4
12.187 -20.892 4
11.321 -20.392 4
10.454 -19.892 4
9.5885 -19.392 4
8.7224 -18.892 4
7.8564 -18.392 4
6.9904 -17.892 4
6.1244 -17.392 4
5.2583 -16.892 4
4.3923 -16.392 4
3.5263 -15.892 4
2.6603 -15.392 4
1.7942 -14.892 4
0.9282 -14.392 4
0.062178 -13.892 4
-9.4641 -8.3923 4
-10.33 -7.8923 4
-17.258 -3.8923 4
-18.124 -3.3923 4
-18.99 -2.8923 4
-19.856 -2.3923 4
-20.722 -1.8923 4
-21.588 -1.3923 4
-22.454 -0.8923 4
-23.321 -0.3923 4
32.971 -32.892 5
27.775 -29.892 5
26.909 -29.392 5
26.043 -28.892 5
25.177 -28.392 5
24.311 -27.892 5
23.445 -27.392 5
22.579 -26.892 5
21.713 -26.392 5
20.847 -25.892 5
19.981 -25.392 5
19.115 -24.892 5
18.249 -24.392 5
17.383 -23.892 5
4.3923 -16.392 5
3.5263 -15.892 5
-10.33 -7.8923 5
-16.392 -4.3923 5
-17.258 -3.8923 5
-18.124 -3.3923 5
-18.99 -2.8923 5
-19.856 -2.3923 5
-20.722 -1.8923 5
-21.588 -1.3923 5
-22.454 -0.8923 5
-23.321 -0.3923 5
-24.187 0.1077 5
-25.053 0.6077 5
33.837 -33.392 6
27.775 -29.892 6
4.3923 -16.392 6
3.5263 -15.892 6
-9.4641 -8.3923 6
-10.33 -7.8923 6
-11.196 -7.3923 6
-16.392 -4.3923 6
-17.258 -3.8923 6
-18.124 -3.3923 6
-18.99 -2.8923 6
-21.588 -1.3923 6
-22.454 -0.8923 6
-24.187 0.1077 6
-25.053 0.6077 6
-25.919 1.1077 6
-26.785 1.6077 6
33.837 -33.392 7
26.909 -29.392 7
19.981 -25.392 7
19.115 -24.892 7
4.3923 -16.392 7
3.5263 -15.892 7
-9.4641 -8.3923 7
-10.33 -7.8923 7
-11.196 -7.3923 7
-21.588 -1.3923 7
-22.454 -0.8923 7
-23.321 -0.3923 7
-25.053 0.6077 7
-25.919 1.1077 7
-26.785 1.6077 7
-27.651 2.1077 7
33.837 -33.392 8
26.909 -29.392 8
20.847 -25.892 8
19.981 -25.392 8
4.3923 -16.392 8
3.5263 -15.892 8
-7.7321 -9.3923 8
-8.5981 -8.8923 8
-9.4641 -8.3923 8
-10.33 -7.8923 8
-20.722 -1.8923 8
-21.588 -1.3923 8
-22.454 -0.8923 8
-23.321 -0.3923 8
-25.919 1.1077 8
33.837 -33.392 9
27.775 -29.892 9
26.909 -29.392 9
21.713 -26.392 9
6.9904 -17.892 9
6.1244 -17.392 9
5.2583 -16.892 9
4.3923 -16.392 9
3.5263 -15.892 9
2.6603 -15.392 9
1.7942 -14.892 9
0.9282 -14.392 9
0.062178 -13.892 9
-0.80385 -13.392 9
-1.6699 -12.892 9
-2.5359 -12.392 9
-3.4019 -11.892 9
-4.2679 -11.392 9
-5.134 -10.892 9
-6 -10.392 9
-6.866 -9.8923 9
-7.7321 -9.3923 9
-18.99 -2.8923 9
-19.856 -2.3923 9
-20.722 -1.8923 9
-21.588 -1.3923 9
-22.454 -0.8923 9
-25.919 1.1077 9
32.971 -32.892 10
32.105 -32.392 10
28.641 -30.392 10
27.775 -29.892 10
22.579 -26.892 10
21.713 -26.392 10
20.847 -25.892 10
6.9904 -17.892 10
-1.6699 -12.892 10
-18.124 -3.3923 10
-18.99 -2.8923 10
-19.856 -2.3923 10
-20.722 -1.8923 10
-21.588 -1.3923 10
-22.454 -0.8923 10
-25.053 0.6077 10
-25.919 1.1077 10
32.105 -32.392 11
31.239 -31.892 11
30.373 -31.392 11
29.507 -30.892 11
28.641 -30.392 11
22.579 -26.892 11
21.713 -26.392 11
20.847 -25.892 11
6.9904 -17.892 11
-1.6699 -12.892 11
-13.794 -5.8923 11
-14.66 -5.3923 11
-15.526 -4.8923 11
-16.392 -4.3923 11
-17.258 -3.8923 11
-18.124 -3.3923 11
-18.99 -2.8923 11
-19.856 -2.3923 11
22.579 -26.892 12
21.713 -26.392 12
20.847 -25.892 12
6.9904 -17.892 12
-1.6699 -12.892 12
-7.7321 -9.3923 12
-8.5981 -8.8923 12
-9.4641 -8.3923 12
-10.33 -7.8923 12
-11.196 -7.3923 12
-12.062 -6.8923 12
-12.928 -6.3923 12
-13.794 -5.8923 12
-14.66 -5.3923 12
-15.526 -4.8923 12
22.579 -26.892 13
21.713 -26.392 13
20.847 -25.892 13
6.9904 -17.892 13
5.2583 -16.892 13
4.3923 -16.392 13
3.5263 -15.892 13
2.6603 -15.392 13
1.7942 -14.892 13
0.9282 -14.392 13
0.062178 -13.892 13
-0.80385 -13.392 13
-1.6699 -12.892 13
-2.5359 -12.392 13
-3.4019 -11.892 13
-4.2679 -11.392 13
-5.134 -10.892 13
-6 -10.392 13
-6.866 -9.8923 13
-7.7321 -9.3923 13
-8.5981 -8.8923 13
-9.4641 -8.3923 13
-10.33 -7.8923 13
-11.196 -7.3923 13
22.579 -26.892 14
21.713 -26.392 14
20.847 -25.892 14
15.651 -22.892 14
14.785 -22.392 14
13.919 -21.892 14
13.053 -21.392 14
12.187 -20.892 14
11.321 -20.392 14
10.454 -19.892 14
9.5885 -19.392 14
8.7224 -18.892 14
7.8564 -18.392 14
6.9904 -17.892 14
6.1244 -17.392 14
5.2583 -16.892 14
4.3923 -16.392 14
3.5263 -15.892 14
2.6603 -15.392 14
1.7942 -14.892 14
0.9282 -14.392 14
0.062178 -13.892 14
20.847 -25.892 15
19.981 -25.392 15
19.115 -24.892 15
18.249 -24.392 15
17.383 -23.892 15
16.517 -23.392 15
-25.553 -0.25833 -11
-26.419 0.24167 -11
-27.285 0.74167 -11
-28.151 1.2417 -11
-29.017 1.7417 -11
-29.883 2.2417 -11
-30.749 2.7417 -11
-31.615 3.2417 -11
-26.419 0.24167 -10
-27.285 0.74167 -10
-28.151 1.2417 -10
-29.017 1.7417 -10
-29.883 2.2417 -10
-30.749 2.7417 -10
-31.615 3.2417 -10
-32.481 3.7417 -10
-33.347 4.2417 -10
-33.347 4.2417 -9
-34.213 4.7417 -9
-35.079 5.2417 -9
-35.945 5.7417 -9
-36.811 6.2417 -9
-37.677 6.7417 -9
-37.677 6.7417 -8
-38.543 7.2417 -8
-39.409 7.7417 -8
-40.275 8.2417 -8
-41.141 8.7417 -8
-40.275 8.2417 -7
-41.141 8.7417 -7
-42.007 9.2417 -7
-42.873 9.7417 -7
-43.739 10.242 -7
-42.873 9.7417 -6
-42.007 9.2417 -5
-42.873 9.7417 -5
-40.275 8.2417 -4
-41.141 8.7417 -4
16.883 -24.758 -3
16.017 -24.258 -3
15.151 -23.758 -3
-38.543 7.2417 -3
-39.409 7.7417 -3
19.481 -26.258 -2
18.615 -25.758 -2
17.749 -25.258 -2
16.883 -24.758 -2
-37.677 6.7417 -2
-38.543 7.2417 -2
21.213 -27.258 -1
20.347 -26.758 -1
19.481 -26.258 -1
-36.811 6.2417 -1
-38.543 7.2417 -1
23.811 -28.758 -2.1431e-015
22.945 -28.258 -2.0819e-015
22.079 -27.758 -2.0207e-015
-34.213 4.7417 1.9594e-015
-35.079 5.2417 2.0207e-015
-35.945 5.7417 2.0819e-015
-36.811 6.2417 2.1431e-015
-37.677 6.7417 2.2044e-015
-38.543 7.2417 2.2656e-015
-39.409 7.7417 2.3268e-015
-40.275 8.2417 2.3881e-015
-41.141 8.7417 2.4493e-015
26.409 -30.258 1
25.543 -29.758 1
24.677 -29.258 1
23.811 -28.758 1
2.1603 -16.258 1
1.2942 -15.758 1
0.4282 -15.258 1
-0.43782 -14.758 1
-1.3038 -14.258 1
-2.1699 -13.758 1
-3.0359 -13.258 1
-3.9019 -12.758 1
-4.7679 -12.258 1
-5.634 -11.758 1
-6.5 -11.258 1
-7.366 -10.758 1
-8.2321 -10.258 1
-9.0981 -9.7583 1
-9.9641 -9.2583 1
-29.017 1.7417 1
-29.883 2.2417 1
-30.749 2.7417 1
-31.615 3.2417 1
-32.481 3.7417 1
-33.347 4.2417 1
-34.213 4.7417 1
28.141 -31.258 2
27.275 -30.758 2
26.409 -30.258 2
3.0263 -16.758 2
2.1603 -16.258 2
-8.2321 -10.258 2
-9.0981 -9.7583 2
-9.9641 -9.2583 2
-17.758 -4.7583 2
-18.624 -4.2583 2
-19.49 -3.7583 2
-20.356 -3.2583 2
-21.222 -2.7583 2
-22.088 -2.2583 2
-22.954 -1.7583 2
-23.821 -1.2583 2
-24.687 -0.75833 2
-25.553 -0.25833 2
-26.419 0.24167 2
-27.285 0.74167 2
-28.151 1.2417 2
-29.017 1.7417 2
28.141 -31.258 3
3.0263 -16.758 3
2.1603 -16.258 3
1.2942 -15.758 3
-0.43782 -14.758 3
-1.3038 -14.258 3
-2.1699 -13.758 3
-3.0359 -13.258 3
-3.9019 -12.758 3
-4.7679 -12.258 3
-5.634 -11.758 3
-6.5 -11.258 3
-7.366 -10.758 3
-8.2321 -10.258 3
-9.0981 -9.7583 3
-9.9641 -9.2583 3
-10.83 -8.7583 3
-11.696 -8.2583 3
-12.562 -7.7583 3
-13.428 -7.2583 3
-14.294 -6.7583 3
-15.16 -6.2583 3
-16.026 -5.7583 3
-16.892 -5.2583 3
-17.758 -4.7583 3
-18.624 -4.2583 3
-19.49 -3.7583 3
-20.356 -3.2583 3
-21.222 -2.7583 3
32.471 -33.758 4
31.605 -33.258 4
30.739 -32.758 4
29.873 -32.258 4
29.007 -31.758 4
28.141 -31.258 4
27.275 -30.758 4
16.017 -24.258 4
15.151 -23.758 4
14.285 -23.258 4
13.419 -22.758 4
12.553 -22.258 4
11.687 -21.758 4
10.821 -21.258 4
9.9545 -20.758 4
9.0885 -20.258 4
8.2224 -19.758 4
7.3564 -19.258 4
6.4904 -18.758 4
5.6244 -18.258 4
4.7583 -17.758 4
3.8923 -17.258 4
3.0263 -16.758 4
2.1603 -16.258 4
1.2942 -15.758 4
0.4282 -15.258 4
-0.43782 -14.758 4
-8.2321 -10.258 4
-9.0981 -9.7583 4
-9.9641 -9.2583 4
-17.758 -4.7583 4
-18.624 -4.2583 4
-19.49 -3.7583 4
-20.356 -3.2583 4
-21.222 -2.7583 4
-22.088 -2.2583 4
-22.954 -1.7583 4
32.471 -33.758 5
27.275 -30.758 5
26.409 -30.258 5
25.543 -29.758 5
24.677 -29.258 5
23.811 -28.758 5
22.945 -28.258 5
22.079 -27.758 5
21.213 -27.258 5
20.347 -26.758 5
19.481 -26.258 5
18.615 -25.758 5
17.749 -25.258 5
16.883 -24.758 5
3.0263 -16.758 5
2.1603 -16.258 5
1.2942 -15.758 5
-9.0981 -9.7583 5
-9.9641 -9.2583 5
-16.026 -5.7583 5
-16.892 -5.2583 5
-17.758 -4.7583 5
-19.49 -3.7583 5
-20.356 -3.2583 5
-21.222 -2.7583 5
-22.088 -2.2583 5
-22.954 -1.7583 5
-23.821 -1.2583 5
-24.687 -0.75833 5
33.337 -34.258 6
27.275 -30.758 6
26.409 -30.258 6
13.419 -22.758 6
2.1603 -16.258 6
1.2942 -15.758 6
-8.2321 -10.258 6
-9.0981 -9.7583 6
-9.9641 -9.2583 6
-16.026 -5.7583 6
-16.892 -5.2583 6
-17.758 -4.7583 6
-18.624 -4.2583 6
-19.49 -3.7583 6
-20.356 -3.2583 6
-21.222 -2.7583 6
-22.954 -1.7583 6
-23.821 -1.2583 6
-24.687 -0.75833 6
-25.553 -0.25833 6
-26.419 0.24167 6
33.337 -34.258 7
26.409 -30.258 7
18.615 -25.758 7
17.749 -25.258 7
16.883 -24.758 7
16.017 -24.258 7
15.151 -23.758 7
14.285 -23.258 7
3.0263 -16.758 7
2.1603 -16.258 7
1.2942 -15.758 7
-8.2321 -10.258 7
-9.0981 -9.7583 7
-9.9641 -9.2583 7
-21.222 -2.7583 7
-24.687 -0.75833 7
-25.553 -0.25833 7
-26.419 0.24167 7
-27.285 0.74167 7
33.337 -34.258 8
26.409 -30.258 8
20.347 -26.758 8
19.481 -26.258 8
18.615 -25.758 8
17.749 -25.258 8
2.1603 -16.258 8
1.2942 -15.758 8
-8.2321 -10.258 8
-9.0981 -9.7583 8
-9.9641 -9.2583 8
-20.356 -3.2583 8
-21.222 -2.7583 8
-22.088 -2.2583 8
-22.954 -1.7583 8
-23.821 -1.2583 8
-26.419 0.24167 8
33.337 -34.258 9
32.471 -33.758 9
27.275 -30.758 9
21.213 -27.258 9
20.347 -26.758 9
6.4904 -18.758 9
5.6244 -18.258 9
4.7583 -17.758 9
3.8923 -17.258 9
3.0263 -16.758 9
2.1603 -16.258 9
1.2942 -15.758 9
0.4282 -15.258 9
-0.43782 -14.758 9
-1.3038 -14.258 9
-2.1699 -13.758 9
-3.0359 -13.258 9
-3.9019 -12.758 9
-4.7679 -12.258 9
-5.634 -11.758 9
-6.5 -11.258 9
-7.366 -10.758 9
-8.2321 -10.258 9
-18.624 -4.2583 9
-19.49 -3.7583 9
-20.356 -3.2583 9
-21.222 -2.7583 9
-23.821 -1.2583 9
-26.419 0.24167 9
32.471 -33.758 10
28.141 -31.258 10
27.275 -30.758 10
22.079 -27.758 10
21.213 -27.258 10
20.347 -26.758 10
6.4904 -18.758 10
-2.1699 -13.758 10
-17.758 -4.7583 10
-18.624 -4.2583 10
-19.49 -3.7583 10
-20.356 -3.2583 10
-21.222 -2.7583 10
-22.088 -2.2583 10
-22.954 -1.7583 10
-25.553 -0.25833 10
-26.419 0.24167 10
31.605 -33.258 11
30.739 -32.758 11
29.873 -32.258 11
29.007 -31.758 11
28.141 -31.258 11
22.079 -27.758 11
21.213 -27.258 11
20.347 -26.758 11
7.3564 -19.258 11
6.4904 -18.758 11
-2.1699 -13.758 11
-12.562 -7.7583 11
-13.428 -7.2583 11
-14.294 -6.7583 11
-15.16 -6.2583 11
-16.026 -5.7583 11
-16.892 -5.2583 11
-17.758 -4.7583 11
-18.624 -4.2583 11
22.079 -27.758 12
21.213 -27.258 12
20.347 -26.758 12
6.4904 -18.758 12
-2.1699 -13.758 12
-8.2321 -10.258 12
-9.0981 -9.7583 12
-9.9641 -9.2583 12
-10.83 -8.7583 12
-11.696 -8.2583 12
-12.562 -7.7583 12
-13.428 -7.2583 12
-14.294 -6.7583 12
-15.16 -6.2583 12
22.079 -27.758 13
21.213 -27.258 13
20.347 -26.758 13
6.4904 -18.758 13
5.6244 -18.258 13
4.7583 -17.758 13
3.8923 -17.258 13
3.0263 -16.758 13
2.1603 -16.258 13
1.2942 -15.758 13
0.4282 -15.258 13
-0.43782 -14.758 13
-1.3038 -14.258 13
-2.1699 -13.758 13
-3.0359 -13.258 13
-3.9019 -12.758 13
-4.7679 -12.258 13
-5.634 -11.758 13
-6.5 -11.258 13
-7.366 -10.758 13
-8.2321 -10.258 13
-9.0981 -9.7583 13
-9.9641 -9.2583 13
22.079 -27.758 14
21.213 -27.258 14
20.347 -26.758 14
16.017 -24.258 14
15.151 -23.758 14
14.285 -23.258 14
13.419 -22.758 14
12.553 -22.258 14
11.687 -21.758 14
10.821 -21.258 14
9.9545 -20.758 14
9.0885 -20.258 14
8.2224 -19.758 14
7.3564 -19.258 14
6.4904 -18.758 14
5.6244 -18.258 14
4.7583 -17.758 14
3.8923 -17.258 14
3.0263 -16.758 14
2.1603 -16.258 14
1.2942 -15.758 14
0.4282 -15.258 14
20.347 -26.758 15
19.481 -26.258 15
18.615 -25.758 15
17.749 -25.258 15
16.883 -24.758 15
16.017 -24.258 15
-31.249 1.8756 -10
-32.115 2.3756 -10
-32.981 2.8756 -10
-33.847 3.3756 -9
-34.713 3.8756 -9
-35.579 4.3756 -9
-36.445 4.8756 -9
-37.311 5.3756 -9
-37.311 5.3756 -8
-38.177 5.8756 -8
-39.043 6.3756 -8
-39.909 6.8756 -8
-39.909 6.8756 -7
-40.775 7.3756 -7
-41.641 7.8756 -7
-42.507 8.3756 -7
-43.373 8.8756 -7
-43.373 8.8756 -6
-44.239 9.3756 -6
-42.507 8.3756 -5
-43.373 8.8756 -5
-40.775 7.3756 -4
-41.641 7.8756 -4
-42.507 8.3756 -4
16.383 -25.624 -3
15.517 -25.124 -3
14.651 -24.624 -3
-39.043 6.3756 -3
-39.909 6.8756 -3
-40.775 7.3756 -3
18.981 -27.124 -2
18.115 -26.624 -2
17.249 -26.124 -2
16.383 -25.624 -2
-37.311 5.3756 -2
-38.177 5.8756 -2
-39.043 6.3756 -2
-39.909 6.8756 -2
20.713 -28.124 -1
19.847 -27.624 -1
18.981 -27.124 -1
-37.311 5.3756 -1
-38.177 5.8756 -1
-39.043 6.3756 -1
-39.909 6.8756 -1
-40.775 7.3756 -1
23.311 -29.624 -2.1431e-015
22.445 -29.124 -2.0819e-015
21.579 -28.624 -2.0207e-015
-33.847 3.3756 1.8982e-015
-34.713 3.8756 1.9594e-015
-35.579 4.3756 2.0207e-015
-36.445 4.8756 2.0819e-015
-37.311 5.3756 2.1431e-015
-38.177 5.8756 2.2044e-015
-39.043 6.3756 2.2656e-015
25.043 -30.624 1
24.177 -30.124 1
23.311 -29.624 1
0.79423 -16.624 1
-0.071797 -16.124 1
-0.93782 -15.624 1
-1.8038 -15.124 1
-2.6699 -14.624 1
-3.5359 -14.124 1
-4.4019 -13.624 1
-5.2679 -13.124 1
-6.134 -12.624 1
-7 -12.124 1
-7.866 -11.624 1
-8.7321 -11.124 1
-30.383 1.3756 1
-31.249 1.8756 1
-32.115 2.3756 1
-32.981 2.8756 1
-33.847 3.3756 1
-34.713 3.8756 1
27.641 -32.124 2
26.775 -31.624 2
25.909 -31.124 2
0.79423 -16.624 2
-0.071797 -16.124 2
-0.93782 -15.624 2
-1.8038 -15.124 2
-6.134 -12.624 2
-7 -12.124 2
-7.866 -11.624 2
-8.7321 -11.124 2
-18.258 -5.6244 2
-19.124 -5.1244 2
-19.99 -4.6244 2
-20.856 -4.1244 2
-21.722 -3.6244 2
-22.588 -3.1244 2
-23.454 -2.6244 2
-24.321 -2.1244 2
-25.187 -1.6244 2
-26.053 -1.1244 2
-26.919 -0.62436 2
-27.785 -0.12436 2
-28.651 0.37564 2
-29.517 0.87564 2
27.641 -32.124 3
0.79423 -16.624 3
-0.071797 -16.124 3
-0.93782 -15.624 3
-1.8038 -15.124 3
-2.6699 -14.624 3
-3.5359 -14.124 3
-4.4019 -13.624 3
-5.2679 -13.124 3
-6.134 -12.624 3
-7 -12.124 3
-7.866 -11.624 3
-8.7321 -11.124 3
-9.5981 -10.624 3
-10.464 -10.124 3
-11.33 -9.6244 3
-12.196 -9.1244 3
-13.062 -8.6244 3
-13.928 -8.1244 3
-14.794 -7.6244 3
-15.66 -7.1244 3
-16.526 -6.6244 3
-17.392 -6.1244 3
-18.258 -5.6244 3
-19.124 -5.1244 3
-19.99 -4.6244 3
31.971 -34.624 4
31.105 -34.124 4
30.239 -33.624 4
29.373 -33.124 4
28.507 -32.624 4
27.641 -32.124 4
26.775 -31.624 4
15.517 -25.124 4
14.651 -24.624 4
13.785 -24.124 4
12.919 -23.624 4
12.053 -23.124 4
11.187 -22.624 4
10.321 -22.124 4
9.4545 -21.624 4
8.5885 -21.124 4
7.7224 -20.624 4
6.8564 -20.124 4
5.9904 -19.624 4
5.1244 -19.124 4
4.2583 -18.624 4
3.3923 -18.124 4
2.5263 -17.624 4
1.6603 -17.124 4
0.79423 -16.624 4
-0.071797 -16.124 4
-0.93782 -15.624 4
-1.8038 -15.124 4
-6.134 -12.624 4
-7 -12.124 4
-7.866 -11.624 4
-8.7321 -11.124 4
-19.124 -5.1244 4
-19.99 -4.6244 4
-20.856 -4.1244 4
-21.722 -3.6244 4
-22.588 -3.1244 4
31.971 -34.624 5
31.105 -34.124 5
30.239 -33.624 5
29.373 -33.124 5
28.507 -32.624 5
27.641 -32.124 5
26.775 -31.624 5
25.909 -31.124 5
25.043 -30.624 5
24.177 -30.124 5
23.311 -29.624 5
22.445 -29.124 5
21.579 -28.624 5
20.713 -28.124 5
19.847 -27.624 5
18.981 -27.124 5
18.115 -26.624 5
17.249 -26.124 5
16.383 -25.624 5
15.517 -25.124 5
0.79423 -16.624 5
-0.071797 -16.124 5
-0.93782 -15.624 5
-1.8038 -15.124 5
-6.134 -12.624 5
-7 -12.124 5
-7.866 -11.624 5
-8.7321 -11.124 5
-15.66 -7.1244 5
-16.526 -6.6244 5
-17.392 -6.1244 5
-18.258 -5.6244 5
-19.99 -4.6244 5
-20.856 -4.1244 5
-21.722 -3.6244 5
-22.588 -3.1244 5
-23.454 -2.6244 5
-24.321 -2.1244 5
-25.187 -1.6244 5
32.837 -35.124 6
31.971 -34.624 6
31.105 -34.124 6
30.239 -33.624 6
29.373 -33.124 6
28.507 -32.624 6
27.641 -32.124 6
26.775 -31.624 6
25.909 -31.124 6
12.919 -23.624 6
12.053 -23.124 6
11.187 -22.624 6
10.321 -22.124 6
0.79423 -16.624 6
-0.071797 -16.124 6
-0.93782 -15.624 6
-1.8038 -15.124 6
-6.134 -12.624 6
-7 -12.124 6
-7.866 -11.624 6
-8.7321 -11.124 6
-15.66 -7.1244 6
-16.526 -6.6244 6
-17.392 -6.1244 6
-18.258 -5.6244 6
-19.124 -5.1244 6
-19.99 -4.6244 6
-20.856 -4.1244 6
-21.722 -3.6244 6
-22.588 -3.1244 6
-23.454 -2.6244 6
-24.321 -2.1244 6
-25.187 -1.6244 6
-26.053 -1.1244 6
-26.919 -0.62436 6
32.837 -35.124 7
31.971 -34.624 7
31.105 -34.124 7
30.239 -33.624 7
29.373 -33.124 7
28.507 -32.624 7
27.641 -32.124 7
26.775 -31.624 7
25.909 -31.124 7
16.383 -25.624 7
15.517 -25.124 7
14.651 -24.624 7
13.785 -24.124 7
12.919 -23.624 7
12.053 -23.124 7
0.79423 -16.624 7
-0.071797 -16.124 7
-0.93782 -15.624 7
-1.8038 -15.124 7
-6.134 -12.624 7
-7 -12.124 7
-7.866 -11.624 7
-8.7321 -11.124 7
-20.856 -4.1244 7
-21.722 -3.6244 7
-23.454 -2.6244 7
-24.321 -2.1244 7
-25.187 -1.6244 7
-26.053 -1.1244 7
-26.919 -0.62436 7
-27.785 -0.12436 7
32.837 -35.124 8
31.971 -34.624 8
31.105 -34.124 8
30.239 -33.624 8
29.373 -33.124 8
28.507 -32.624 8
27.641 -32.124 8
26.775 -31.624 8
25.909 -31.124 8
19.847 -27.624 8
18.981 -27.124 8
18.115 -26.624 8
17.249 -26.124 8
16.383 -25.624 8
-0.071797 -16.124 8
-0.93782 -15.624 8
-1.8038 -15.124 8
-6.134 -12.624 8
-7 -12.124 8
-7.866 -11.624 8
-8.7321 -11.124 8
-20.856 -4.1244 8
-21.722 -3.6244 8
-22.588 -3.1244 8
-23.454 -2.6244 8
-24.321 -2.1244 8
-25.187 -1.6244 8
-26.053 -1.1244 8
-26.919 -0.62436 8
32.837 -35.124 9
31.971 -34.624 9
31.105 -34.124 9
30.239 -33.624 9
29.373 -33.124 9
28.507 -32.624 9
27.641 -32.124 9
26.775 -31.624 9
19.847 -27.624 9
6.8564 -20.124 9
5.9904 -19.624 9
5.1244 -19.124 9
4.2583 -18.624 9
3.3923 -18.124 9
2.5263 -17.624 9
1.6603 -17.124 9
0.79423 -16.624 9
-0.071797 -16.124 9
-0.93782 -15.624 9
-1.8038 -15.124 9
-2.6699 -14.624 9
-3.5359 -14.124 9
-4.4019 -13.624 9
-5.2679 -13.124 9
-6.134 -12.624 9
-7 -12.124 9
-7.866 -11.624 9
-18.258 -5.6244 9
-19.124 -5.1244 9
-19.99 -4.6244 9
-20.856 -4.1244 9
-21.722 -3.6244 9
-22.588 -3.1244 9
-23.454 -2.6244 9
-24.321 -2.1244 9
-25.187 -1.6244 9
-26.053 -1.1244 9
-26.919 -0.62436 9
31.971 -34.624 10
31.105 -34.124 10
30.239 -33.624 10
29.373 -33.124 10
28.507 -32.624 10
27.641 -32.124 10
26.775 -31.624 10
21.579 -28.624 10
20.713 -28.124 10
19.847 -27.624 10
6.8564 -20.124 10
-2.6699 -14.624 10
-17.392 -6.1244 10
-18.258 -5.6244 10
-19.124 -5.1244 10
-19.99 -4.6244 10
-20.856 -4.1244 10
-21.722 -3.6244 10
-22.588 -3.1244 10
-26.053 -1.1244 10
-26.919 -0.62436 10
31.105 -34.124 11
30.239 -33.624 11
29.373 -33.124 11
28.507 -32.624 11
27.641 -32.124 11
21.579 -28.624 11
20.713 -28.124 11
19.847 -27.624 11
6.8564 -20.124 11
-2.6699 -14.624 11
-12.196 -9.1244 11
-13.062 -8.6244 11
-13.928 -8.1244 11
-14.794 -7.6244 11
-15.66 -7.1244 11
-16.526 -6.6244 11
-17.392 -6.1244 11
-18.258 -5.6244 11
-19.124 -5.1244 11
21.579 -28.624 12
20.713 -28.124 12
19.847 -27.624 12
6.8564 -20.124 12
-2.6699 -14.624 12
-8.7321 -11.124 12
-9.5981 -10.624 12
-10.464 -10.124 12
-11.33 -9.6244 12
-12.196 -9.1244 12
-13.062 -8.6244 12
-13.928 -8.1244 12
-14.794 -7.6244 12
-15.66 -7.1244 12
21.579 -28.624 13
20.713 -28.124 13
19.847 -27.624 13
7.7224 -20.624 13
6.8564 -20.124 13
5.9904 -19.624 13
5.1244 -19.124 13
4.2583 -18.624 13
3.3923 -18.124 13
2.5263 -17.624 13
1.6603 -17.124 13
0.79423 -16.624 13
-0.071797 -16.124 13
-0.93782 -15.624 13
-1.8038 -15.124 13
-2.6699 -14.624 13
-3.5359 -14.124 13
-4.4019 -13.624 13
-5.2679 -13.124 13
-6.134 -12.624 13
-7 -12.124 13
-7.866 -11.624 13
-8.7321 -11.124 13
-9.5981 -10.624 13
-10.464 -10.124 13
21.579 -28.624 14
20.713 -28.124 14
19.847 -27.624 14
17.249 -26.124 14
16.383 -25.624 14
15.517 -25.124 14
14.651 -24.624 14
13.785 -24.124 14
12.919 -23.624 14
12.053 -23.124 14
11.187 -22.624 14
10.321 -22.124 14
9.4545 -21.624 14
8.5885 -21.124 14
7.7224 -20.624 14
6.8564 -20.124 14
5.9904 -19.624 14
5.1244 -19.124 14
4.2583 -18.624 14
3.3923 -18.124 14
-0.071797 -16.124 14
19.847 -27.624 15
18.981 -27.124 15
18.115 -26.624 15
17.249 -26.124 15
-31.749 1.0096 -10
-32.615 1.5096 -10
-33.481 2.0096 -10
-34.347 2.5096 -9
-35.213 3.0096 -9
-36.079 3.5096 -9
-36.945 4.0096 -9
-37.811 4.5096 -8
-38.677 5.0096 -8
-39.543 5.5096 -8
-40.409 6.0096 -8
-40.409 6.0096 -7
-41.275 6.5096 -7
-42.141 7.0096 -7
-43.007 7.5096 -7
-43.873 8.0096 -7
-43.873 8.0096 -6
-43.007 7.5096 -5
-43.873 8.0096 -5
-46.471 9.5096 -5
-47.337 10.01 -5
-41.275 6.5096 -4
-42.141 7.0096 -4
-44.739 8.5096 -4
-45.605 9.0096 -4
-46.471 9.5096 -4
15.883 -26.49 -3
15.017 -25.99 -3
14.151 -25.49 -3
-39.543 5.5096 -3
-40.409 6.0096 -3
-41.275 6.5096 -3
-42.141 7.0096 -3
-43.007 7.5096 -3
-43.873 8.0096 -3
18.481 -27.99 -2
17.615 -27.49 -2
16.749 -26.99 -2
15.883 -26.49 -2
-35.213 3.0096 -2
-36.945 4.0096 -2
-37.811 4.5096 -2
-38.677 5.0096 -2
-39.543 5.5096 -2
20.213 -28.99 -1
19.347 -28.49 -1
18.481 -27.99 -1
-28.285 -0.99038 -1
-29.151 -0.49038 -1
-30.017 0.0096189 -1
-30.883 0.50962 -1
-31.749 1.0096 -1
-32.615 1.5096 -1
-33.481 2.0096 -1
-34.347 2.5096 -1
-35.213 3.0096 -1
-36.079 3.5096 -1
-37.811 4.5096 -1
22.811 -30.49 -2.1431e-015
21.945 -29.99 -2.0819e-015
21.079 -29.49 -2.0207e-015
20.213 -28.99 -1.9594e-015
-13.562 -9.4904 4.2863e-016
-14.428 -8.9904 4.8986e-016
-15.294 -8.4904 5.5109e-016
-16.16 -7.9904 6.1232e-016
-17.026 -7.4904 6.7356e-016
-17.892 -6.9904 7.3479e-016
-18.758 -6.4904 7.9602e-016
-19.624 -5.9904 8.5725e-016
-20.49 -5.4904 9.1849e-016
-21.356 -4.9904 9.7972e-016
-22.222 -4.4904 1.0409e-015
-23.088 -3.9904 1.1022e-015
-23.954 -3.4904 1.1634e-015
-24.821 -2.9904 1.2246e-015
-25.687 -2.4904 1.2859e-015
-26.553 -1.9904 1.3471e-015
-27.419 -1.4904 1.4083e-015
-28.285 -0.99038 1.4696e-015
-34.347 2.5096 1.8982e-015
-35.213 3.0096 1.9594e-015
-36.079 3.5096 2.0207e-015
-36.945 4.0096 2.0819e-015
-37.811 4.5096 2.1431e-015
24.543 -31.49 1
23.677 -30.99 1
22.811 -30.49 1
2.8923 -18.99 1
2.0263 -18.49 1
1.1603 -17.99 1
0.29423 -17.49 1
-0.5718 -16.99 1
-1.4378 -16.49 1
-2.3038 -15.99 1
-3.1699 -15.49 1
-4.0359 -14.99 1
-4.9019 -14.49 1
-5.7679 -13.99 1
-6.634 -13.49 1
-7.5 -12.99 1
-8.366 -12.49 1
-9.2321 -11.99 1
-10.098 -11.49 1
-10.964 -10.99 1
-11.83 -10.49 1
-12.696 -9.9904 1
-13.562 -9.4904 1
-15.294 -8.4904 1
-16.16 -7.9904 1
-17.026 -7.4904 1
-17.892 -6.9904 1
-18.758 -6.4904 1
-30.017 0.0096189 1
-30.883 0.50962 1
-31.749 1.0096 1
-32.615 1.5096 1
-33.481 2.0096 1
-34.347 2.5096 1
27.141 -32.99 2
26.275 -32.49 2
25.409 -31.99 2
21.079 -29.49 2
20.213 -28.99 2
19.347 -28.49 2
18.481 -27.99 2
17.615 -27.49 2
16.749 -26.99 2
15.883 -26.49 2
15.017 -25.99 2
14.151 -25.49 2
13.285 -24.99 2
12.419 -24.49 2
11.553 -23.99 2
10.687 -23.49 2
9.8205 -22.99 2
8.9545 -22.49 2
8.0885 -21.99 2
7.2224 -21.49 2
6.3564 -20.99 2
5.4904 -20.49 2
4.6244 -19.99 2
3.7583 -19.49 2
2.8923 -18.99 2
2.0263 -18.49 2
1.1603 -17.99 2
0.29423 -17.49 2
-0.5718 -16.99 2
-1.4378 -16.49 2
-2.3038 -15.99 2
-3.1699 -15.49 2
-4.0359 -14.99 2
-4.9019 -14.49 2
-5.7679 -13.99 2
-6.634 -13.49 2
-18.758 -6.4904 2
-19.624 -5.9904 2
-20.49 -5.4904 2
-21.356 -4.9904 2
-22.222 -4.4904 2
-23.088 -3.9904 2
-23.954 -3.4904 2
-24.821 -2.9904 2
-25.687 -2.4904 2
-26.553 -1.9904 2
-27.419 -1.4904 2
-28.285 -0.99038 2
-29.151 -0.49038 2
-30.017 0.0096189 2
31.471 -35.49 3
30.605 -34.99 3
29.739 -34.49 3
28.873 -33.99 3
28.007 -33.49 3
27.141 -32.99 3
26.275 -32.49 3
25.409 -31.99 3
24.543 -31.49 3
23.677 -30.99 3
22.811 -30.49 3
21.945 -29.99 3
21.079 -29.49 3
20.213 -28.99 3
19.347 -28.49 3
18.481 -27.99 3
17.615 -27.49 3
16.749 -26.99 3
15.883 -26.49 3
15.017 -25.99 3
14.151 -25.49 3
13.285 -24.99 3
11.553 -23.99 3
10.687 -23.49 3
-1.4378 -16.49 3
-2.3038 -15.99 3
-3.1699 -15.49 3
-4.0359 -14.99 3
-4.9019 -14.49 3
-5.7679 -13.99 3
-6.634 -13.49 3
-7.5 -12.99 3
-8.366 -12.49 3
-9.2321 -11.99 3
-10.098 -11.49 3
-10.964 -10.99 3
-11.83 -10.49 3
-12.696 -9.9904 3
-13.562 -9.4904 3
-14.428 -8.9904 3
-15.294 -8.4904 3
-16.16 -7.9904 3
-17.026 -7.4904 3
-17.892 -6.9904 3
-18.758 -6.4904 3
-19.624 -5.9904 3
-20.49 -5.4904 3
30.605 -34.99 4
29.739 -34.49 4
28.873 -33.99 4
28.007 -33.49 4
27.141 -32.99 4
26.275 -32.49 4
25.409 -31.99 4
15.017 -25.99 4
14.151 -25.49 4
13.285 -24.99 4
12.419 -24.49 4
11.553 -23.99 4
10.687 -23.49 4
9.8205 -22.99 4
8.9545 -22.49 4
8.0885 -21.99 4
7.2224 -21.49 4
6.3564 -20.99 4
5.4904 -20.49 4
4.6244 -19.99 4
3.7583 -19.49 4
2.8923 -18.99 4
2.0263 -18.49 4
1.1603 -17.99 4
0.29423 -17.49 4
-0.5718 -16.99 4
-1.4378 -16.49 4
-2.3038 -15.99 4
-3.1699 -15.49 4
-4.0359 -14.99 4
-4.9019 -14.49 4
-5.7679 -13.99 4
-6.634 -13.49 4
-19.624 -5.9904 4
-20.49 -5.4904 4
-21.356 -4.9904 4
30.605 -34.99 5
29.739 -34.49 5
28.873 -33.99 5
28.007 -33.49 5
27.141 -32.99 5
26.275 -32.49 5
25.409 -31.99 5
24.543 -31.49 5
23.677 -30.99 5
22.811 -30.49 5
21.945 -29.99 5
21.079 -29.49 5
20.213 -28.99 5
19.347 -28.49 5
18.481 -27.99 5
17.615 -27.49 5
16.749 -26.99 5
15.883 -26.49 5
15.017 -25.99 5
14.151 -25.49 5
13.285 -24.99 5
12.419 -24.49 5
11.553 -23.99 5
10.687 -23.49 5
9.8205 -22.99 5
8.9545 -22.49 5
8.0885 -21.99 5
7.2224 -21.49 5
6.3564 -20.99 5
5.4904 -20.49 5
-2.3038 -15.99 5
-3.1699 -15.49 5
-4.0359 -14.99 5
-4.9019 -14.49 5
-5.7679 -13.99 5
-6.634 -13.49 5
-15.294 -8.4904 5
-16.16 -7.9904 5
-17.026 -7.4904 5
-17.892 -6.9904 5
-18.758 -6.4904 5
-19.624 -5.9904 5
-20.49 -5.4904 5
-21.356 -4.9904 5
-22.222 -4.4904 5
-23.088 -3.9904 5
-23.954 -3.4904 5
-24.821 -2.9904 5
30.605 -34.99 6
29.739 -34.49 6
28.873 -33.99 6
28.007 -33.49 6
27.141 -32.99 6
26.275 -32.49 6
25.409 -31.99 6
24.543 -31.49 6
23.677 -30.99 6
22.811 -30.49 6
21.945 -29.99 6
21.079 -29.49 6
20.213 -28.99 6
19.347 -28.49 6
18.481 -27.99 6
17.615 -27.49 6
16.749 -26.99 6
15.883 -26.49 6
15.017 -25.99 6
14.151 -25.49 6
10.687 -23.49 6
9.8205 -22.99 6
8.9545 -22.49 6
8.0885 -21.99 6
7.2224 -21.49 6
-3.1699 -15.49 6
-4.0359 -14.99 6
-4.9019 -14.49 6
-5.7679 -13.99 6
-6.634 -13.49 6
-15.294 -8.4904 6
-16.16 -7.9904 6
-17.026 -7.4904 6
-17.892 -6.9904 6
-18.758 -6.4904 6
-19.624 -5.9904 6
-20.49 -5.4904 6
-21.356 -4.9904 6
-22.222 -4.4904 6
-23.088 -3.9904 6
-23.954 -3.4904 6
-24.821 -2.9904 6
-25.687 -2.4904 6
-26.553 -1.9904 6
-27.419 -1.4904 6
30.605 -34.99 7
29.739 -34.49 7
28.873 -33.99 7
27.141 -32.99 7
14.151 -25.49 7
13.285 -24.99 7
12.419 -24.49 7
11.553 -23.99 7
10.687 -23.49 7
9.8205 -22.99 7
-3.1699 -15.49 7
-4.0359 -14.99 7
-4.9019 -14.49 7
-5.7679 -13.99 7
-6.634 -13.49 7
-19.624 -5.9904 7
-20.49 -5.4904 7
-23.954 -3.4904 7
-24.821 -2.9904 7
-25.687 -2.4904 7
-26.553 -1.9904 7
-27.419 -1.4904 7
17.615 -27.49 8
16.749 -26.99 8
15.883 -26.49 8
15.017 -25.99 8
14.151 -25.49 8
-2.3038 -15.99 8
-3.1699 -15.49 8
-4.0359 -14.99 8
-4.9019 -14.49 8
-5.7679 -13.99 8
-6.634 -13.49 8
-20.49 -5.4904 8
-21.356 -4.9904 8
-22.222 -4.4904 8
-23.088 -3.9904 8
-25.687 -2.4904 8
-26.553 -1.9904 8
18.481 -27.99 9
17.615 -27.49 9
16.749 -26.99 9
15.883 -26.49 9
15.017 -25.99 9
6.3564 -20.99 9
5.4904 -20.49 9
4.6244 -19.99 9
3.7583 -19.49 9
2.8923 -18.99 9
2.0263 -18.49 9
1.1603 -17.99 9
0.29423 -17.49 9
-0.5718 -16.99 9
-1.4378 -16.49 9
-2.3038 -15.99 9
-3.1699 -15.49 9
-4.0359 -14.99 9
-4.9019 -14.49 9
-5.7679 -13.99 9
-6.634 -13.49 9
-18.758 -6.4904 9
-19.624 -5.9904 9
-20.49 -5.4904 9
-22.222 -4.4904 9
-23.088 -3.9904 9
-23.954 -3.4904 9
-24.821 -2.9904 9
-25.687 -2.4904 9
21.079 -29.49 10
20.213 -28.99 10
19.347 -28.49 10
18.481 -27.99 10
17.615 -27.49 10
16.749 -26.99 10
15.883 -26.49 10
15.017 -25.99 10
6.3564 -20.99 10
-2.3038 -15.99 10
-17.026 -7.4904 10
-17.892 -6.9904 10
-18.758 -6.4904 10
-19.624 -5.9904 10
-20.49 -5.4904 10
-21.356 -4.9904 10
21.079 -29.49 11
20.213 -28.99 11
19.347 -28.49 11
18.481 -27.99 11
17.615 -27.49 11
16.749 -26.99 11
15.883 -26.49 11
15.017 -25.99 11
6.3564 -20.99 11
-2.3038 -15.99 11
-3.1699 -15.49 11
-11.83 -10.49 11
-12.696 -9.9904 11
-13.562 -9.4904 11
-14.428 -8.9904 11
-15.294 -8.4904 11
-16.16 -7.9904 11
-17.026 -7.4904 11
-17.892 -6.9904 11
-18.758 -6.4904 11
-19.624 -5.9904 11
21.079 -29.49 12
20.213 -28.99 12
19.347 -28.49 12
18.481 -27.99 12
17.615 -27.49 12
16.749 -26.99 12
15.883 -26.49 12
15.017 -25.99 12
6.3564 -20.99 12
-2.3038 -15.99 12
-3.1699 -15.49 12
-5.7679 -13.99 12
-6.634 -13.49 12
-7.5 -12.99 12
-8.366 -12.49 12
-9.2321 -11.99 12
-10.098 -11.49 12
-10.964 -10.99 12
-11.83 -10.49 12
-12.696 -9.9904 12
-13.562 -9.4904 12
-14.428 -8.9904 12
-15.294 -8.4904 12
21.079 -29.49 13
20.213 -28.99 13
19.347 -28.49 13
18.481 -27.99 13
17.615 -27.49 13
16.749 -26.99 13
15.883 -26.49 13
15.017 -25.99 13
14.151 -25.49 13
8.9545 -22.49 13
8.0885 -21.99 13
7.2224 -21.49 13
6.3564 -20.99 13
5.4904 -20.49 13
4.6244 -19.99 13
3.7583 -19.49 13
2.8923 -18.99 13
2.0263 -18.49 13
1.1603 -17.99 13
0.29423 -17.49 13
-0.5718 -16.99 13
-1.4378 -16.49 13
-2.3038 -15.99 13
-3.1699 -15.49 13
-4.0359 -14.99 13
-4.9019 -14.49 13
-5.7679 -13.99 13
-6.634 -13.49 13
-10.964 -10.99 13
21.079 -29.49 14
20.213 -28.99 14
19.347 -28.49 14
18.481 -27.99 14
17.615 -27.49 14
16.749 -26.99 14
15.883 -26.49 14
15.017 -25.99 14
14.151 -25.49 14
13.285 -24.99 14
12.419 -24.49 14
11.553 -23.99 14
10.687 -23.49 14
9.8205 -22.99 14
8.9545 -22.49 14
8.0885 -21.99 14
5.4904 -20.49 14
4.6244 -19.99 14
-0.5718 -16.99 14
18.481 -27.99 15
-32.249 0.14359 -10
-33.115 0.64359 -10
-33.981 1.1436 -10
-34.847 1.6436 -10
-42.641 6.1436 -10
-43.507 6.6436 -10
-44.373 7.1436 -10
-45.239 7.6436 -10
-34.847 1.6436 -9
-35.713 2.1436 -9
-36.579 2.6436 -9
-37.445 3.1436 -9
-41.775 5.6436 -9
-42.641 6.1436 -9
-43.507 6.6436 -9
-44.373 7.1436 -9
-45.239 7.6436 -9
-46.105 8.1436 -9
-46.971 8.6436 -9
-38.311 3.6436 -8
-39.177 4.1436 -8
-40.043 4.6436 -8
-40.909 5.1436 -8
-41.775 5.6436 -8
-42.641 6.1436 -8
-43.507 6.6436 -8
-44.373 7.1436 -8
-45.239 7.6436 -8
-46.105 8.1436 -8
-46.971 8.6436 -8
-40.909 5.1436 -7
-41.775 5.6436 -7
-42.641 6.1436 -7
-43.507 6.6436 -7
-44.373 7.1436 -7
-45.239 7.6436 -7
-46.105 8.1436 -7
-46.971 8.6436 -7
18.847 -29.356 -6
17.981 -28.856 -6
17.115 -28.356 -6
-40.909 5.1436 -6
-41.775 5.6436 -6
-42.641 6.1436 -6
-43.507 6.6436 -6
-44.373 7.1436 -6
-45.239 7.6436 -6
-46.105 8.1436 -6
-46.971 8.6436 -6
20.579 -30.356 -5
19.713 -29.856 -5
18.847 -29.356 -5
17.981 -28.856 -5
17.115 -28.356 -5
16.249 -27.856 -5
-41.775 5.6436 -5
-42.641 6.1436 -5
-43.507 6.6436 -5
-44.373 7.1436 -5
-45.239 7.6436 -5
-46.105 8.1436 -5
-46.971 8.6436 -5
-47.837 9.1436 -5
-48.703 9.6436 -5
-49.569 10.144 -5
20.579 -30.356 -4
19.713 -29.856 -4
18.847 -29.356 -4
17.981 -28.856 -4
17.115 -28.356 -4
16.249 -27.856 -4
15.383 -27.356 -4
-41.775 5.6436 -4
-42.641 6.1436 -4
-43.507 6.6436 -4
-44.373 7.1436 -4
-45.239 7.6436 -4
-46.105 8.1436 -4
-46.971 8.6436 -4
-47.837 9.1436 -4
-48.703 9.6436 -4
-49.569 10.144 -4
21.445 -30.856 -3
20.579 -30.356 -3
19.713 -29.856 -3
18.847 -29.356 -3
17.981 -28.856 -3
17.115 -28.356 -3
16.249 -27.856 -3
15.383 -27.356 -3
14.517 -26.856 -3
13.651 -26.356 -3
-40.043 4.6436 -3
-40.909 5.1436 -3
-41.775 5.6436 -3
-42.641 6.1436 -3
-43.507 6.6436 -3
-44.373 7.1436 -3
-45.239 7.6436 -3
-46.105 8.1436 -3
-46.971 8.6436 -3
-47.837 9.1436 -3
-48.703 9.6436 -3
21.445 -30.856 -2
20.579 -30.356 -2
19.713 -29.856 -2
18.847 -29.356 -2
17.981 -28.856 -2
17.115 -28.356 -2
16.249 -27.856 -2
15.383 -27.356 -2
-39.177 4.1436 -2
-40.043 4.6436 -2
-40.909 5.1436 -2
-41.775 5.6436 -2
-42.641 6.1436 -2
-43.507 6.6436 -2
-44.373 7.1436 -2
-45.239 7.6436 -2
-46.105 8.1436 -2
-46.971 8.6436 -2
-47.837 9.1436 -2
20.579 -30.356 -1
19.713 -29.856 -1
18.847 -29.356 -1
17.981 -28.856 -1
17.115 -28.356 -1
16.249 -27.856 -1
-33.115 0.64359 -1
-33.981 1.1436 -1
-35.713 2.1436 -1
-36.579 2.6436 -1
-37.445 3.1436 -1
-38.311 3.6436 -1
-39.177 4.1436 -1
-40.043 4.6436 -1
-40.909 5.1436 -1
-41.775 5.6436 -1
-42.641 6.1436 -1
-43.507 6.6436 -1
-44.373 7.1436 -1
-45.239 7.6436 -1
-46.105 8.1436 -1
21.445 -30.856 -2.0819e-015
20.579 -30.356 -2.0207e-015
19.713 -29.856 -1.9594e-015
18.847 -29.356 -1.8982e-015
17.981 -28.856 -1.837e-015
17.115 -28.356 -1.7757e-015
16.249 -27.856 -1.7145e-015
15.383 -27.356 -1.6533e-015
-26.187 -3.3564 1.2859e-015
-27.053 -2.8564 1.3471e-015
-27.919 -2.3564 1.4083e-015
-28.785 -1.8564 1.4696e-015
-29.651 -1.3564 1.5308e-015
-30.517 -0.85641 1.592e-015
-31.383 -0.35641 1.6533e-015
-32.249 0.14359 1.7145e-015
-33.115 0.64359 1.7757e-015
-33.981 1.1436 1.837e-015
-34.847 1.6436 1.8982e-015
-35.713 2.1436 1.9594e-015
-36.579 2.6436 2.0207e-015
-37.445 3.1436 2.0819e-015
-38.311 3.6436 2.1431e-015
-39.177 4.1436 2.2044e-015
-40.043 4.6436 2.2656e-015
-40.909 5.1436 2.3268e-015
-41.775 5.6436 2.3881e-015
-42.641 6.1436 2.4493e-015
-43.507 6.6436 2.5105e-015
24.043 -32.356 1
23.177 -31.856 1
22.311 -31.356 1
18.847 -29.356 1
17.981 -28.856 1
17.115 -28.356 1
-8 -13.856 1
-9.7321 -12.856 1
-10.598 -12.356 1
-11.464 -11.856 1
-12.33 -11.356 1
-13.196 -10.856 1
-14.062 -10.356 1
-14.928 -9.8564 1
-15.794 -9.3564 1
-16.66 -8.8564 1
-17.526 -8.3564 1
-18.392 -7.8564 1
-19.258 -7.3564 1
-20.124 -6.8564 1
-20.99 -6.3564 1
-21.856 -5.8564 1
-22.722 -5.3564 1
-23.588 -4.8564 1
-24.454 -4.3564 1
-25.321 -3.8564 1
-26.187 -3.3564 1
-27.053 -2.8564 1
-27.919 -2.3564 1
-28.785 -1.8564 1
-29.651 -1.3564 1
-30.517 -0.85641 1
-31.383 -0.35641 1
-32.249 0.14359 1
-33.115 0.64359 1
-33.981 1.1436 1
-34.847 1.6436 1
-35.713 2.1436 1
-36.579 2.6436 1
-37.445 3.1436 1
-38.311 3.6436 1
26.641 -33.856 2
25.775 -33.356 2
24.909 -32.856 2
4.9904 -21.356 2
3.2583 -20.356 2
2.3923 -19.856 2
1.5263 -19.356 2
0.66025 -18.856 2
-0.20577 -18.356 2
-1.0718 -17.856 2
-1.9378 -17.356 2
-2.8038 -16.856 2
-3.6699 -16.356 2
-4.5359 -15.856 2
-5.4019 -15.356 2
-6.2679 -14.856 2
-7.134 -14.356 2
-8 -13.856 2
-8.866 -13.356 2
-9.7321 -12.856 2
-10.598 -12.356 2
-11.464 -11.856 2
-12.33 -11.356 2
-13.196 -10.856 2
-14.062 -10.356 2
-14.928 -9.8564 2
-15.794 -9.3564 2
-16.66 -8.8564 2
-17.526 -8.3564 2
-18.392 -7.8564 2
-19.258 -7.3564 2
-20.124 -6.8564 2
-20.99 -6.3564 2
-21.856 -5.8564 2
-22.722 -5.3564 2
-23.588 -4.8564 2
-24.454 -4.3564 2
-25.321 -3.8564 2
-26.187 -3.3564 2
-27.053 -2.8564 2
-27.919 -2.3564 2
-28.785 -1.8564 2
-29.651 -1.3564 2
-30.517 -0.85641 2
-31.383 -0.35641 2
-32.249 0.14359 2
-33.115 0.64359 2
-33.981 1.1436 2
30.971 -36.356 3
26.641 -33.856 3
20.579 -30.356 3
19.713 -29.856 3
18.847 -29.356 3
17.981 -28.856 3
17.115 -28.356 3
16.249 -27.856 3
15.383 -27.356 3
14.517 -26.856 3
13.651 -26.356 3
12.785 -25.856 3
11.919 -25.356 3
11.053 -24.856 3
10.187 -24.356 3
9.3205 -23.856 3
8.4545 -23.356 3
7.5885 -22.856 3
6.7224 -22.356 3
5.8564 -21.856 3
4.9904 -21.356 3
4.1244 -20.856 3
3.2583 -20.356 3
2.3923 -19.856 3
1.5263 -19.356 3
0.66025 -18.856 3
-0.20577 -18.356 3
-1.0718 -17.856 3
-1.9378 -17.356 3
-2.8038 -16.856 3
-3.6699 -16.356 3
-4.5359 -15.856 3
-5.4019 -15.356 3
-6.2679 -14.856 3
-7.134 -14.356 3
-8 -13.856 3
-8.866 -13.356 3
-9.7321 -12.856 3
-10.598 -12.356 3
-11.464 -11.856 3
-12.33 -11.356 3
-13.196 -10.856 3
-14.062 -10.356 3
-14.928 -9.8564 3
-15.794 -9.3564 3
-16.66 -8.8564 3
-17.526 -8.3564 3
-18.392 -7.8564 3
-19.258 -7.3564 3
-20.124 -6.8564 3
-20.99 -6.3564 3
-21.856 -5.8564 3
-22.722 -5.3564 3
-23.588 -4.8564 3
-24.454 -4.3564 3
30.971 -36.356 4
30.105 -35.856 4
29.239 -35.356 4
28.373 -34.856 4
27.507 -34.356 4
26.641 -33.856 4
25.775 -33.356 4
24.909 -32.856 4
24.043 -32.356 4
23.177 -31.856 4
22.311 -31.356 4
21.445 -30.856 4
20.579 -30.356 4
19.713 -29.856 4
18.847 -29.356 4
17.981 -28.856 4
17.115 -28.356 4
16.249 -27.856 4
15.383 -27.356 4
14.517 -26.856 4
13.651 -26.356 4
12.785 -25.856 4
11.919 -25.356 4
11.053 -24.856 4
10.187 -24.356 4
9.3205 -23.856 4
8.4545 -23.356 4
7.5885 -22.856 4
6.7224 -22.356 4
5.8564 -21.856 4
4.9904 -21.356 4
4.1244 -20.856 4
3.2583 -20.356 4
2.3923 -19.856 4
1.5263 -19.356 4
0.66025 -18.856 4
-0.20577 -18.356 4
-1.0718 -17.856 4
-1.9378 -17.356 4
-2.8038 -16.856 4
-3.6699 -16.356 4
-4.5359 -15.856 4
-5.4019 -15.356 4
-6.2679 -14.856 4
-7.134 -14.356 4
-8 -13.856 4
-19.258 -7.3564 4
-20.124 -6.8564 4
-20.99 -6.3564 4
30.971 -36.356 5
30.105 -35.856 5
29.239 -35.356 5
28.373 -34.856 5
27.507 -34.356 5
26.641 -33.856 5
25.775 -33.356 5
24.909 -32.856 5
24.043 -32.356 5
23.177 -31.856 5
22.311 -31.356 5
21.445 -30.856 5
20.579 -30.356 5
19.713 -29.856 5
18.847 -29.356 5
17.981 -28.856 5
17.115 -28.356 5
16.249 -27.856 5
15.383 -27.356 5
14.517 -26.856 5
13.651 -26.356 5
12.785 -25.856 5
11.919 -25.356 5
11.053 -24.856 5
10.187 -24.356 5
9.3205 -23.856 5
8.4545 -23.356 5
7.5885 -22.856 5
6.7224 -22.356 5
5.8564 -21.856 5
4.9904 -21.356 5
4.1244 -20.856 5
3.2583 -20.356 5
2.3923 -19.856 5
1.5263 -19.356 5
-14.928 -9.8564 5
-15.794 -9.3564 5
-16.66 -8.8564 5
-17.526 -8.3564 5
-18.392 -7.8564 5
-19.258 -7.3564 5
-20.124 -6.8564 5
-20.99 -6.3564 5
-21.856 -5.8564 5
-22.722 -5.3564 5
-23.588 -4.8564 5
-24.454 -4.3564 5
30.105 -35.856 6
29.239 -35.356 6
28.373 -34.856 6
27.507 -34.356 6
26.641 -33.856 6
25.775 -33.356 6
24.909 -32.856 6
24.043 -32.356 6
23.177 -31.856 6
22.311 -31.356 6
21.445 -30.856 6
20.579 -30.356 6
19.713 -29.856 6
18.847 -29.356 6
17.981 -28.856 6
17.115 -28.356 6
16.249 -27.856 6
15.383 -27.356 6
14.517 -26.856 6
13.651 -26.356 6
8.4545 -23.356 6
7.5885 -22.856 6
6.7224 -22.356 6
5.8564 -21.856 6
4.9904 -21.356 6
-14.928 -9.8564 6
-15.794 -9.3564 6
-16.66 -8.8564 6
-17.526 -8.3564 6
-18.392 -7.8564 6
-19.258 -7.3564 6
-20.124 -6.8564 6
-20.99 -6.3564 6
-21.856 -5.8564 6
-22.722 -5.3564 6
-23.588 -4.8564 6
-24.454 -4.3564 6
-25.321 -3.8564 6
-26.187 -3.3564 6
-27.053 -2.8564 6
30.105 -35.856 7
29.239 -35.356 7
28.373 -34.856 7
27.507 -34.356 7
26.641 -33.856 7
25.775 -33.356 7
15.383 -27.356 7
14.517 -26.856 7
13.651 -26.356 7
11.053 -24.856 7
10.187 -24.356 7
9.3205 -23.856 7
8.4545 -23.356 7
-19.258 -7.3564 7
-20.124 -6.8564 7
-23.588 -4.8564 7
-24.454 -4.3564 7
-25.321 -3.8564 7
-26.187 -3.3564 7
-27.053 -2.8564 7
17.981 -28.856 8
17.115 -28.356 8
16.249 -27.856 8
15.383 -27.356 8
14.517 -26.856 8
13.651 -26.356 8
12.785 -25.856 8
11.919 -25.356 8
11.053 -24.856 8
10.187 -24.356 8
-20.124 -6.8564 8
-20.99 -6.3564 8
-21.856 -5.8564 8
-22.722 -5.3564 8
-23.588 -4.8564 8
-26.187 -3.3564 8
-27.053 -2.8564 8
17.981 -28.856 9
17.115 -28.356 9
16.249 -27.856 9
15.383 -27.356 9
14.517 -26.856 9
13.651 -26.356 9
12.785 -25.856 9
11.919 -25.356 9
11.053 -24.856 9
10.187 -24.356 9
5.8564 -21.856 9
4.9904 -21.356 9
4.1244 -20.856 9
3.2583 -20.356 9
2.3923 -19.856 9
1.5263 -19.356 9
0.66025 -18.856 9
-0.20577 -18.356 9
-1.0718 -17.856 9
-1.9378 -17.356 9
-2.8038 -16.856 9
-5.4019 -15.356 9
-6.2679 -14.856 9
-7.134 -14.356 9
-8 -13.856 9
-8.866 -13.356 9
-17.526 -8.3564 9
-18.392 -7.8564 9
-19.258 -7.3564 9
-20.124 -6.8564 9
-22.722 -5.3564 9
-23.588 -4.8564 9
-24.454 -4.3564 9
-25.321 -3.8564 9
-26.187 -3.3564 9
20.579 -30.356 10
19.713 -29.856 10
18.847 -29.356 10
17.981 -28.856 10
17.115 -28.356 10
16.249 -27.856 10
15.383 -27.356 10
14.517 -26.856 10
13.651 -26.356 10
12.785 -25.856 10
11.919 -25.356 10
11.053 -24.856 10
10.187 -24.356 10
5.8564 -21.856 10
4.9904 -21.356 10
-2.8038 -16.856 10
-6.2679 -14.856 10
-7.134 -14.356 10
-8 -13.856 10
-8.866 -13.356 10
-16.66 -8.8564 10
-17.526 -8.3564 10
-18.392 -7.8564 10
-19.258 -7.3564 10
-20.124 -6.8564 10
-20.99 -6.3564 10
-21.856 -5.8564 10
-22.722 -5.3564 10
20.579 -30.356 11
19.713 -29.856 11
18.847 -29.356 11
17.981 -28.856 11
17.115 -28.356 11
16.249 -27.856 11
15.383 -27.356 11
14.517 -26.856 11
13.651 -26.356 11
12.785 -25.856 11
11.919 -25.356 11
11.053 -24.856 11
10.187 -24.356 11
5.8564 -21.856 11
4.9904 -21.356 11
-2.8038 -16.856 11
-5.4019 -15.356 11
-6.2679 -14.856 11
-7.134 -14.356 11
-8 -13.856 11
-8.866 -13.356 11
-9.7321 -12.856 11
-11.464 -11.856 11
-12.33 -11.356 11
-13.196 -10.856 11
-14.062 -10.356 11
-14.928 -9.8564 11
-15.794 -9.3564 11
-16.66 -8.8564 11
-17.526 -8.3564 11
-18.392 -7.8564 11
20.579 -30.356 12
19.713 -29.856 12
18.847 -29.356 12
17.981 -28.856 12
17.115 -28.356 12
16.249 -27.856 12
15.383 -27.356 12
14.517 -26.856 12
13.651 -26.356 12
12.785 -25.856 12
11.919 -25.356 12
11.053 -24.856 12
10.187 -24.356 12
5.8564 -21.856 12
4.9904 -21.356 12
-1.9378 -17.356 12
-2.8038 -16.856 12
-3.6699 -16.356 12
-4.5359 -15.856 12
-5.4019 -15.356 12
-6.2679 -14.856 12
-7.134 -14.356 12
-8 -13.856 12
-8.866 -13.356 12
-9.7321 -12.856 12
-10.598 -12.356 12
-11.464 -11.856 12
-12.33 -11.356 12
-13.196 -10.856 12
-14.062 -10.356 12
20.579 -30.356 13
19.713 -29.856 13
18.847 -29.356 13
17.981 -28.856 13
17.115 -28.356 13
16.249 -27.856 13
15.383 -27.356 13
14.517 -26.856 13
13.651 -26.356 13
12.785 -25.856 13
11.919 -25.356 13
11.053 -24.856 13
10.187 -24.356 13
9.3205 -23.856 13
8.4545 -23.356 13
7.5885 -22.856 13
6.7224 -22.356 13
5.8564 -21.856 13
4.9904 -21.356 13
4.1244 -20.856 13
3.2583 -20.356 13
2.3923 -19.856 13
1.5263 -19.356 13
0.66025 -18.856 13
-0.20577 -18.356 13
-1.0718 -17.856 13
-1.9378 -17.356 13
-2.8038 -16.856 13
-3.6699 -16.356 13
-6.2679 -14.856 13
-7.134 -14.356 13
-8 -13.856 13
20.579 -30.356 14
19.713 -29.856 14
18.847 -29.356 14
17.981 -28.856 14
17.115 -28.356 14
16.249 -27.856 14
15.383 -27.356 14
14.517 -26.856 14
13.651 -26.356 14
12.785 -25.856 14
11.919 -25.356 14
11.053 -24.856 14
10.187 -24.356 14
-1.0718 -17.856 14
-6.2679 -14.856 14
-7.134 -14.356 14
-29.285 -2.7224 -16
-31.017 -1.7224 -16
-31.883 -1.2224 -16
-32.749 -0.72243 -16
-33.615 -0.22243 -16
-34.481 0.27757 -16
-35.347 0.77757 -16
-36.213 1.2776 -16
-37.079 1.7776 -16
-37.945 2.2776 -16
-12.83 -12.222 -15
-13.696 -11.722 -15
-14.562 -11.222 -15
-15.428 -10.722 -15
-16.294 -10.222 -15
-17.16 -9.7224 -15
-18.026 -9.2224 -15
-18.892 -8.7224 -15
-19.758 -8.2224 -15
-20.624 -7.7224 -15
-21.49 -7.2224 -15
-22.356 -6.7224 -15
-23.222 -6.2224 -15
-24.088 -5.7224 -15
-24.954 -5.2224 -15
-25.821 -4.7224 -15
-26.687 -4.2224 -15
-27.553 -3.7224 -15
-28.419 -3.2224 -15
-29.285 -2.7224 -15
-30.151 -2.2224 -15
-31.017 -1.7224 -15
-31.883 -1.2224 -15
-32.749 -0.72243 -15
-33.615 -0.22243 -15
-34.481 0.27757 -15
-35.347 0.77757 -15
-36.213 1.2776 -15
-37.079 1.7776 -15
-37.945 2.2776 -15
-38.811 2.7776 -15
-39.677 3.2776 -15
3.6244 -21.722 -14
2.7583 -21.222 -14
1.8923 -20.722 -14
1.0263 -20.222 -14
0.16025 -19.722 -14
-0.70577 -19.222 -14
-1.5718 -18.722 -14
-2.4378 -18.222 -14
-3.3038 -17.722 -14
