33.856 26.641 2
32.124 27.641 2
30.392 28.641 2
28.66 29.641 2
26.928 30.641 2
25.196 31.641 2
23.464 32.641 2
21.732 33.641 2
20 34.641 2
18.268 35.641 2
16.536 36.641 2
14.804 37.641 2
13.072 38.641 2
11.34 39.641 2
-31.962 64.641 2
-33.694 65.641 2
-35.426 66.641 2
-37.158 67.641 2
-38.89 68.641 2
-40.622 69.641 2
-42.354 70.641 2
96.21 -9.359 4
66.765 7.641 4
65.033 8.641 4
63.301 9.641 4
61.569 10.641 4
59.837 11.641 4
58.105 12.641 4
56.373 13.641 4
54.641 14.641 4
52.909 15.641 4
51.177 16.641 4
49.445 17.641 4
47.713 18.641 4
45.981 19.641 4
44.249 20.641 4
-12.909 53.641 4
-14.641 54.641 4
-16.373 55.641 4
-18.105 56.641 4
-19.837 57.641 4
-21.569 58.641 4
-23.301 59.641 4
-25.033 60.641 4
-26.765 61.641 4
-28.497 62.641 4
-30.229 63.641 4
-31.962 64.641 4
-33.694 65.641 4
97.942 -10.359 6
30.392 28.641 6
28.66 29.641 6
26.928 30.641 6
25.196 31.641 6
23.464 32.641 6
21.732 33.641 6
20 34.641 6
18.268 35.641 6
16.536 36.641 6
14.804 37.641 6
13.072 38.641 6
11.34 39.641 6
9.6077 40.641 6
7.8756 41.641 6
6.1436 42.641 6
4.4115 43.641 6
2.6795 44.641 6
0.94744 45.641 6
-0.78461 46.641 6
-2.5167 47.641 6
-4.2487 48.641 6
-5.9808 49.641 6
-7.7128 50.641 6
-9.4449 51.641 6
-11.177 52.641 6
-12.909 53.641 6
97.942 -10.359 8
96.21 -9.359 8
54.641 14.641 8
52.909 15.641 8
51.177 16.641 8
49.445 17.641 8
47.713 18.641 8
45.981 19.641 8
44.249 20.641 8
42.517 21.641 8
40.785 22.641 8
39.053 23.641 8
37.321 24.641 8
35.588 25.641 8
33.856 26.641 8
32.124 27.641 8
30.392 28.641 8
28.66 29.641 8
26.928 30.641 8
25.196 31.641 8
23.464 32.641 8
21.732 33.641 8
20 34.641 8
18.268 35.641 8
16.536 36.641 8
14.804 37.641 8
13.072 38.641 8
11.34 39.641 8
9.6077 40.641 8
7.8756 41.641 8
96.21 -9.359 10
87.55 -4.359 10
85.818 -3.359 10
84.086 -2.359 10
82.354 -1.359 10
80.622 -0.35898 10
78.89 0.64102 10
77.158 1.641 10
75.426 2.641 10
73.694 3.641 10
71.962 4.641 10
70.229 5.641 10
68.497 6.641 10
66.765 7.641 10
65.033 8.641 10
63.301 9.641 10
61.569 10.641 10
59.837 11.641 10
58.105 12.641 10
56.373 13.641 10
54.641 14.641 10
52.909 15.641 10
51.177 16.641 10
49.445 17.641 10
47.713 18.641 10
45.981 19.641 10
44.249 20.641 10
42.517 21.641 10
20 34.641 10
18.268 35.641 10
16.536 36.641 10
14.804 37.641 10
13.072 38.641 10
11.34 39.641 10
9.6077 40.641 10
7.8756 41.641 10
6.1436 42.641 10
4.4115 43.641 10
2.6795 44.641 10
0.94744 45.641 10
-0.78461 46.641 10
96.21 -9.359 12
94.478 -8.359 12
92.746 -7.359 12
91.014 -6.359 12
89.282 -5.359 12
87.55 -4.359 12
85.818 -3.359 12
84.086 -2.359 12
82.354 -1.359 12
80.622 -0.35898 12
78.89 0.64102 12
77.158 1.641 12
75.426 2.641 12
73.694 3.641 12
71.962 4.641 12
70.229 5.641 12
68.497 6.641 12
66.765 7.641 12
65.033 8.641 12
63.301 9.641 12
32.124 27.641 12
20 34.641 12
18.268 35.641 12
16.536 36.641 12
14.804 37.641 12
13.072 38.641 12
11.34 39.641 12
9.6077 40.641 12
7.8756 41.641 12
4.4115 43.641 12
2.6795 44.641 12
0.94744 45.641 12
-0.78461 46.641 12
-2.5167 47.641 12
-4.2487 48.641 12
-5.9808 49.641 12
96.21 -9.359 14
94.478 -8.359 14
32.124 27.641 14
20 34.641 14
18.268 35.641 14
16.536 36.641 14
14.804 37.641 14
11.34 39.641 14
9.6077 40.641 14
7.8756 41.641 14
4.4115 43.641 14
0.94744 45.641 14
-0.78461 46.641 14
-2.5167 47.641 14
-4.2487 48.641 14
-5.9808 49.641 14
32.124 27.641 16
20 34.641 16
18.268 35.641 16
16.536 36.641 16
14.804 37.641 16
13.072 38.641 16
11.34 39.641 16
9.6077 40.641 16
7.8756 41.641 16
6.1436 42.641 16
4.4115 43.641 16
2.6795 44.641 16
0.94744 45.641 16
-2.5167 47.641 16
-4.2487 48.641 16
-5.9808 49.641 16
-7.7128 50.641 16
32.124 27.641 18
20 34.641 18
18.268 35.641 18
16.536 36.641 18
14.804 37.641 18
13.072 38.641 18
11.34 39.641 18
9.6077 40.641 18
7.8756 41.641 18
4.4115 43.641 18
0.94744 45.641 18
-0.78461 46.641 18
-2.5167 47.641 18
32.124 27.641 20
20 34.641 20
18.268 35.641 20
16.536 36.641 20
14.804 37.641 20
13.072 38.641 20
11.34 39.641 20
9.6077 40.641 20
7.8756 41.641 20
6.1436 42.641 20
4.4115 43.641 20
2.6795 44.641 20
32.124 27.641 22
13.072 38.641 22
11.34 39.641 22
9.6077 40.641 22
32.124 27.641 24
18.268 35.641 24
16.536 36.641 24
18.268 35.641 26
16.536 36.641 26
-12.177 50.909 -32
-13.909 51.909 -32
-15.641 52.909 -32
-17.373 53.909 -32
-19.105 54.909 -32
-20.837 55.909 -32
-22.569 56.909 -32
-24.301 57.909 -32
-26.033 58.909 -32
-27.765 59.909 -32
-29.497 60.909 -32
-31.229 61.909 -32
-32.962 62.909 -32
-34.694 63.909 -32
-36.426 64.909 -32
-38.158 65.909 -32
-39.89 66.909 -32
-41.622 67.909 -32
24.196 29.909 -30
20.732 31.909 -30
19 32.909 -30
17.268 33.909 -30
15.536 34.909 -30
13.804 35.909 -30
12.072 36.909 -30
10.34 37.909 -30
8.6077 38.909 -30
6.8756 39.909 -30
5.1436 40.909 -30
3.4115 41.909 -30
1.6795 42.909 -30
-0.052559 43.909 -30
-1.7846 44.909 -30
-3.5167 45.909 -30
-5.2487 46.909 -30
-6.9808 47.909 -30
-8.7128 48.909 -30
-10.445 49.909 -30
-12.177 50.909 -30
-13.909 51.909 -30
-15.641 52.909 -30
-17.373 53.909 -30
-19.105 54.909 -30
-20.837 55.909 -30
-22.569 56.909 -30
-24.301 57.909 -30
-26.033 58.909 -30
-27.765 59.909 -30
-29.497 60.909 -30
-31.229 61.909 -30
-32.962 62.909 -30
-34.694 63.909 -30
-36.426 64.909 -30
-38.158 65.909 -30
-39.89 66.909 -30
-41.622 67.909 -30
-43.354 68.909 -30
-45.086 69.909 -30
-46.818 70.909 -30
57.105 10.909 -28
53.641 12.909 -28
51.909 13.909 -28
50.177 14.909 -28
48.445 15.909 -28
46.713 16.909 -28
44.981 17.909 -28
43.249 18.909 -28
41.517 19.909 -28
39.785 20.909 -28
38.053 21.909 -28
36.321 22.909 -28
34.588 23.909 -28
32.856 24.909 -28
31.124 25.909 -28
29.392 26.909 -28
27.66 27.909 -28
25.928 28.909 -28
24.196 29.909 -28
22.464 30.909 -28
20.732 31.909 -28
19 32.909 -28
17.268 33.909 -28
15.536 34.909 -28
13.804 35.909 -28
12.072 36.909 -28
10.34 37.909 -28
8.6077 38.909 -28
6.8756 39.909 -28
5.1436 40.909 -28
3.4115 41.909 -28
1.6795 42.909 -28
-0.052559 43.909 -28
-1.7846 44.909 -28
-3.5167 45.909 -28
-5.2487 46.909 -28
-6.9808 47.909 -28
-12.177 50.909 -28
-13.909 51.909 -28
-15.641 52.909 -28
-17.373 53.909 -28
-19.105 54.909 -28
-20.837 55.909 -28
-22.569 56.909 -28
-29.497 60.909 -28
-31.229 61.909 -28
-32.962 62.909 -28
-34.694 63.909 -28
-36.426 64.909 -28
-38.158 65.909 -28
-39.89 66.909 -28
-41.622 67.909 -28
-43.354 68.909 -28
-45.086 69.909 -28
-46.818 70.909 -28
-48.55 71.909 -28
-50.282 72.909 -28
62.301 7.909 -26
60.569 8.909 -26
58.837 9.909 -26
57.105 10.909 -26
55.373 11.909 -26
53.641 12.909 -26
51.909 13.909 -26
50.177 14.909 -26
48.445 15.909 -26
46.713 16.909 -26
44.981 17.909 -26
43.249 18.909 -26
41.517 19.909 -26
39.785 20.909 -26
38.053 21.909 -26
36.321 22.909 -26
34.588 23.909 -26
32.856 24.909 -26
31.124 25.909 -26
29.392 26.909 -26
25.928 28.909 -26
22.464 30.909 -26
20.732 31.909 -26
19 32.909 -26
17.268 33.909 -26
15.536 34.909 -26
13.804 35.909 -26
5.1436 40.909 -26
3.4115 41.909 -26
1.6795 42.909 -26
-0.052559 43.909 -26
-1.7846 44.909 -26
-3.5167 45.909 -26
-5.2487 46.909 -26
-6.9808 47.909 -26
-10.445 49.909 -26
-12.177 50.909 -26
-13.909 51.909 -26
-15.641 52.909 -26
-17.373 53.909 -26
-19.105 54.909 -26
-20.837 55.909 -26
-22.569 56.909 -26
-24.301 57.909 -26
-29.497 60.909 -26
-31.229 61.909 -26
-32.962 62.909 -26
-34.694 63.909 -26
-36.426 64.909 -26
-38.158 65.909 -26
-39.89 66.909 -26
-41.622 67.909 -26
-43.354 68.909 -26
-48.55 71.909 -26
-50.282 72.909 -26
-52.014 73.909 -26
-53.746 74.909 -26
65.765 5.909 -24
64.033 6.909 -24
62.301 7.909 -24
60.569 8.909 -24
58.837 9.909 -24
57.105 10.909 -24
55.373 11.909 -24
53.641 12.909 -24
51.909 13.909 -24
50.177 14.909 -24
48.445 15.909 -24
41.517 19.909 -24
39.785 20.909 -24
38.053 21.909 -24
36.321 22.909 -24
34.588 23.909 -24
32.856 24.909 -24
31.124 25.909 -24
29.392 26.909 -24
24.196 29.909 -24
22.464 30.909 -24
20.732 31.909 -24
19 32.909 -24
17.268 33.909 -24
15.536 34.909 -24
13.804 35.909 -24
12.072 36.909 -24
10.34 37.909 -24
6.8756 39.909 -24
5.1436 40.909 -24
3.4115 41.909 -24
1.6795 42.909 -24
-0.052559 43.909 -24
-1.7846 44.909 -24
-3.5167 45.909 -24
-5.2487 46.909 -24
-6.9808 47.909 -24
-10.445 49.909 -24
-12.177 50.909 -24
-13.909 51.909 -24
-15.641 52.909 -24
-20.837 55.909 -24
-22.569 56.909 -24
-24.301 57.909 -24
-26.033 58.909 -24
-27.765 59.909 -24
-29.497 60.909 -24
-31.229 61.909 -24
-34.694 63.909 -24
-36.426 64.909 -24
-39.89 66.909 -24
-41.622 67.909 -24
-43.354 68.909 -24
-52.014 73.909 -24
-53.746 74.909 -24
-55.478 75.909 -24
67.497 4.909 -22
65.765 5.909 -22
64.033 6.909 -22
62.301 7.909 -22
60.569 8.909 -22
58.837 9.909 -22
57.105 10.909 -22
55.373 11.909 -22
53.641 12.909 -22
51.909 13.909 -22
50.177 14.909 -22
48.445 15.909 -22
46.713 16.909 -22
43.249 18.909 -22
41.517 19.909 -22
39.785 20.909 -22
38.053 21.909 -22
36.321 22.909 -22
34.588 23.909 -22
32.856 24.909 -22
31.124 25.909 -22
29.392 26.909 -22
27.66 27.909 -22
25.928 28.909 -22
24.196 29.909 -22
22.464 30.909 -22
20.732 31.909 -22
15.536 34.909 -22
13.804 35.909 -22
12.072 36.909 -22
10.34 37.909 -22
8.6077 38.909 -22
6.8756 39.909 -22
5.1436 40.909 -22
3.4115 41.909 -22
1.6795 42.909 -22
-0.052559 43.909 -22
-1.7846 44.909 -22
-3.5167 45.909 -22
-5.2487 46.909 -22
-6.9808 47.909 -22
-8.7128 48.909 -22
-10.445 49.909 -22
-12.177 50.909 -22
-13.909 51.909 -22
-15.641 52.909 -22
-17.373 53.909 -22
-19.105 54.909 -22
-22.569 56.909 -22
-24.301 57.909 -22
-26.033 58.909 -22
-27.765 59.909 -22
-29.497 60.909 -22
-31.229 61.909 -22
-34.694 63.909 -22
-38.158 65.909 -22
-39.89 66.909 -22
-41.622 67.909 -22
-43.354 68.909 -22
-53.746 74.909 -22
-55.478 75.909 -22
-57.21 76.909 -22
70.962 2.909 -20
69.229 3.909 -20
67.497 4.909 -20
65.765 5.909 -20
60.569 8.909 -20
58.837 9.909 -20
57.105 10.909 -20
55.373 11.909 -20
51.909 13.909 -20
50.177 14.909 -20
48.445 15.909 -20
46.713 16.909 -20
43.249 18.909 -20
41.517 19.909 -20
39.785 20.909 -20
36.321 22.909 -20
34.588 23.909 -20
32.856 24.909 -20
31.124 25.909 -20
29.392 26.909 -20
27.66 27.909 -20
25.928 28.909 -20
24.196 29.909 -20
22.464 30.909 -20
19 32.909 -20
17.268 33.909 -20
15.536 34.909 -20
13.804 35.909 -20
12.072 36.909 -20
10.34 37.909 -20
8.6077 38.909 -20
6.8756 39.909 -20
5.1436 40.909 -20
1.6795 42.909 -20
-1.7846 44.909 -20
-5.2487 46.909 -20
-6.9808 47.909 -20
-8.7128 48.909 -20
-10.445 49.909 -20
-12.177 50.909 -20
-13.909 51.909 -20
-15.641 52.909 -20
-20.837 55.909 -20
-22.569 56.909 -20
-24.301 57.909 -20
-26.033 58.909 -20
-27.765 59.909 -20
-29.497 60.909 -20
-31.229 61.909 -20
-32.962 62.909 -20
-34.694 63.909 -20
-36.426 64.909 -20
-38.158 65.909 -20
-41.622 67.909 -20
-43.354 68.909 -20
-50.282 72.909 -20
-52.014 73.909 -20
-53.746 74.909 -20
-55.478 75.909 -20
-57.21 76.909 -20
-58.942 77.909 -20
72.694 1.909 -18
70.962 2.909 -18
69.229 3.909 -18
67.497 4.909 -18
62.301 7.909 -18
60.569 8.909 -18
58.837 9.909 -18
55.373 11.909 -18
53.641 12.909 -18
51.909 13.909 -18
48.445 15.909 -18
46.713 16.909 -18
44.981 17.909 -18
43.249 18.909 -18
41.517 19.909 -18
39.785 20.909 -18
38.053 21.909 -18
36.321 22.909 -18
34.588 23.909 -18
32.856 24.909 -18
31.124 25.909 -18
29.392 26.909 -18
27.66 27.909 -18
25.928 28.909 -18
24.196 29.909 -18
22.464 30.909 -18
20.732 31.909 -18
15.536 34.909 -18
13.804 35.909 -18
12.072 36.909 -18
10.34 37.909 -18
8.6077 38.909 -18
6.8756 39.909 -18
5.1436 40.909 -18
1.6795 42.909 -18
-1.7846 44.909 -18
-5.2487 46.909 -18
-6.9808 47.909 -18
-8.7128 48.909 -18
-10.445 49.909 -18
-12.177 50.909 -18
-13.909 51.909 -18
-15.641 52.909 -18
-17.373 53.909 -18
-19.105 54.909 -18
-22.569 56.909 -18
-24.301 57.909 -18
-26.033 58.909 -18
-27.765 59.909 -18
-29.497 60.909 -18
-31.229 61.909 -18
-32.962 62.909 -18
-34.694 63.909 -18
-36.426 64.909 -18
-39.89 66.909 -18
-41.622 67.909 -18
-43.354 68.909 -18
-48.55 71.909 -18
-50.282 72.909 -18
-52.014 73.909 -18
-53.746 74.909 -18
-55.478 75.909 -18
-57.21 76.909 -18
-58.942 77.909 -18
74.426 0.90897 -16
72.694 1.909 -16
70.962 2.909 -16
62.301 7.909 -16
60.569 8.909 -16
58.837 9.909 -16
55.373 11.909 -16
51.909 13.909 -16
48.445 15.909 -16
46.713 16.909 -16
44.981 17.909 -16
43.249 18.909 -16
41.517 19.909 -16
39.785 20.909 -16
38.053 21.909 -16
34.588 23.909 -16
31.124 25.909 -16
29.392 26.909 -16
27.66 27.909 -16
25.928 28.909 -16
24.196 29.909 -16
22.464 30.909 -16
19 32.909 -16
17.268 33.909 -16
15.536 34.909 -16
12.072 36.909 -16
10.34 37.909 -16
8.6077 38.909 -16
6.8756 39.909 -16
5.1436 40.909 -16
3.4115 41.909 -16
1.6795 42.909 -16
-0.052559 43.909 -16
-3.5167 45.909 -16
-5.2487 46.909 -16
-6.9808 47.909 -16
-8.7128 48.909 -16
-10.445 49.909 -16
-12.177 50.909 -16
-13.909 51.909 -16
-15.641 52.909 -16
-20.837 55.909 -16
-22.569 56.909 -16
-24.301 57.909 -16
-26.033 58.909 -16
-29.497 60.909 -16
-31.229 61.909 -16
-32.962 62.909 -16
-34.694 63.909 -16
-36.426 64.909 -16
-38.158 65.909 -16
-39.89 66.909 -16
-41.622 67.909 -16
-43.354 68.909 -16
-46.818 70.909 -16
-48.55 71.909 -16
-57.21 76.909 -16
-58.942 77.909 -16
-60.674 78.909 -16
76.158 -0.091035 -14
74.426 0.90897 -14
72.694 1.909 -14
70.962 2.909 -14
69.229 3.909 -14
62.301 7.909 -14
60.569 8.909 -14
58.837 9.909 -14
55.373 11.909 -14
53.641 12.909 -14
51.909 13.909 -14
50.177 14.909 -14
48.445 15.909 -14
46.713 16.909 -14
44.981 17.909 -14
43.249 18.909 -14
41.517 19.909 -14
39.785 20.909 -14
36.321 22.909 -14
34.588 23.909 -14
31.124 25.909 -14
29.392 26.909 -14
27.66 27.909 -14
25.928 28.909 -14
24.196 29.909 -14
22.464 30.909 -14
20.732 31.909 -14
15.536 34.909 -14
13.804 35.909 -14
12.072 36.909 -14
10.34 37.909 -14
6.8756 39.909 -14
5.1436 40.909 -14
3.4115 41.909 -14
1.6795 42.909 -14
-0.052559 43.909 -14
-1.7846 44.909 -14
-3.5167 45.909 -14
-5.2487 46.909 -14
-6.9808 47.909 -14
-10.445 49.909 -14
-12.177 50.909 -14
-13.909 51.909 -14
-15.641 52.909 -14
-17.373 53.909 -14
-19.105 54.909 -14
-20.837 55.909 -14
-22.569 56.909 -14
-24.301 57.909 -14
-29.497 60.909 -14
-31.229 61.909 -14
-32.962 62.909 -14
-34.694 63.909 -14
-36.426 64.909 -14
-38.158 65.909 -14
-39.89 66.909 -14
-41.622 67.909 -14
-46.818 70.909 -14
-48.55 71.909 -14
-58.942 77.909 -14
-60.674 78.909 -14
77.89 -1.091 -12
76.158 -0.091035 -12
74.426 0.90897 -12
72.694 1.909 -12
70.962 2.909 -12
69.229 3.909 -12
67.497 4.909 -12
62.301 7.909 -12
60.569 8.909 -12
58.837 9.909 -12
57.105 10.909 -12
50.177 14.909 -12
48.445 15.909 -12
46.713 16.909 -12
43.249 18.909 -12
41.517 19.909 -12
39.785 20.909 -12
38.053 21.909 -12
36.321 22.909 -12
34.588 23.909 -12
32.856 24.909 -12
31.124 25.909 -12
29.392 26.909 -12
27.66 27.909 -12
24.196 29.909 -12
22.464 30.909 -12
20.732 31.909 -12
19 32.909 -12
17.268 33.909 -12
15.536 34.909 -12
13.804 35.909 -12
12.072 36.909 -12
10.34 37.909 -12
6.8756 39.909 -12
5.1436 40.909 -12
3.4115 41.909 -12
1.6795 42.909 -12
-0.052559 43.909 -12
-1.7846 44.909 -12
-3.5167 45.909 -12
-5.2487 46.909 -12
-6.9808 47.909 -12
-12.177 50.909 -12
-13.909 51.909 -12
-15.641 52.909 -12
-17.373 53.909 -12
-19.105 54.909 -12
-20.837 55.909 -12
-22.569 56.909 -12
-31.229 61.909 -12
-32.962 62.909 -12
-34.694 63.909 -12
-36.426 64.909 -12
-38.158 65.909 -12
-39.89 66.909 -12
-46.818 70.909 -12
-48.55 71.909 -12
-58.942 77.909 -12
-60.674 78.909 -12
79.622 -2.091 -10
77.89 -1.091 -10
76.158 -0.091035 -10
67.497 4.909 -10
65.765 5.909 -10
60.569 8.909 -10
58.837 9.909 -10
57.105 10.909 -10
55.373 11.909 -10
53.641 12.909 -10
51.909 13.909 -10
50.177 14.909 -10
48.445 15.909 -10
46.713 16.909 -10
41.517 19.909 -10
39.785 20.909 -10
38.053 21.909 -10
36.321 22.909 -10
34.588 23.909 -10
32.856 24.909 -10
31.124 25.909 -10
29.392 26.909 -10
22.464 30.909 -10
20.732 31.909 -10
19 32.909 -10
17.268 33.909 -10
15.536 34.909 -10
13.804 35.909 -10
12.072 36.909 -10
3.4115 41.909 -10
1.6795 42.909 -10
-0.052559 43.909 -10
-1.7846 44.909 -10
-3.5167 45.909 -10
-15.641 52.909 -10
-17.373 53.909 -10
-19.105 54.909 -10
-20.837 55.909 -10
-46.818 70.909 -10
-48.55 71.909 -10
-57.21 76.909 -10
-58.942 77.909 -10
-60.674 78.909 -10
-65.87 81.909 -10
-67.603 82.909 -10
79.622 -2.091 -8
77.89 -1.091 -8
76.158 -0.091035 -8
65.765 5.909 -8
58.837 9.909 -8
57.105 10.909 -8
55.373 11.909 -8
53.641 12.909 -8
51.909 13.909 -8
50.177 14.909 -8
48.445 15.909 -8
39.785 20.909 -8
38.053 21.909 -8
36.321 22.909 -8
34.588 23.909 -8
32.856 24.909 -8
31.124 25.909 -8
20.732 31.909 -8
19 32.909 -8
17.268 33.909 -8
15.536 34.909 -8
-48.55 71.909 -8
-50.282 72.909 -8
-52.014 73.909 -8
-53.746 74.909 -8
-55.478 75.909 -8
-57.21 76.909 -8
-58.942 77.909 -8
-60.674 78.909 -8
-64.138 80.909 -8
-65.87 81.909 -8
79.622 -2.091 -6
77.89 -1.091 -6
76.158 -0.091035 -6
65.765 5.909 -6
57.105 10.909 -6
55.373 11.909 -6
53.641 12.909 -6
51.909 13.909 -6
50.177 14.909 -6
-52.014 73.909 -6
-53.746 74.909 -6
-55.478 75.909 -6
-57.21 76.909 -6
-58.942 77.909 -6
-62.406 79.909 -6
-64.138 80.909 -6
79.622 -2.091 -4
77.89 -1.091 -4
76.158 -0.091035 -4
74.426 0.90897 -4
67.497 4.909 -4
65.765 5.909 -4
-26.033 58.909 -4
-27.765 59.909 -4
-29.497 60.909 -4
-31.229 61.909 -4
-32.962 62.909 -4
-34.694 63.909 -4
-36.426 64.909 -4
-38.158 65.909 -4
-39.89 66.909 -4
-41.622 67.909 -4
-43.354 68.909 -4
-45.086 69.909 -4
-46.818 70.909 -4
-48.55 71.909 -4
-50.282 72.909 -4
-52.014 73.909 -4
-53.746 74.909 -4
-55.478 75.909 -4
-58.942 77.909 -4
-60.674 78.909 -4
-62.406 79.909 -4
79.622 -2.091 -2
77.89 -1.091 -2
76.158 -0.091035 -2
74.426 0.90897 -2
72.694 1.909 -2
70.962 2.909 -2
69.229 3.909 -2
67.497 4.909 -2
6.8756 39.909 -2
5.1436 40.909 -2
3.4115 41.909 -2
1.6795 42.909 -2
-0.052559 43.909 -2
-1.7846 44.909 -2
-3.5167 45.909 -2
-5.2487 46.909 -2
-6.9808 47.909 -2
-8.7128 48.909 -2
-10.445 49.909 -2
-12.177 50.909 -2
-13.909 51.909 -2
-15.641 52.909 -2
-17.373 53.909 -2
-19.105 54.909 -2
-20.837 55.909 -2
-22.569 56.909 -2
-24.301 57.909 -2
-26.033 58.909 -2
-27.765 59.909 -2
-29.497 60.909 -2
-31.229 61.909 -2
-32.962 62.909 -2
-34.694 63.909 -2
-36.426 64.909 -2
-38.158 65.909 -2
-39.89 66.909 -2
-41.622 67.909 -2
-43.354 68.909 -2
-45.086 69.909 -2
-46.818 70.909 -2
-48.55 71.909 -2
-50.282 72.909 -2
-52.014 73.909 -2
-53.746 74.909 -2
-55.478 75.909 -2
-57.21 76.909 -2
-58.942 77.909 -2
76.158 -0.091035 -4.0413e-015
74.426 0.90897 -3.9189e-015
72.694 1.909 -3.7964e-015
70.962 2.909 -3.6739e-015
69.229 3.909 -3.5515e-015
67.497 4.909 -3.429e-015
41.517 19.909 -1.592e-015
39.785 20.909 -1.4696e-015
38.053 21.909 -1.3471e-015
36.321 22.909 -1.2246e-015
34.588 23.909 -1.1022e-015
32.856 24.909 -9.7972e-016
31.124 25.909 -8.5725e-016
29.392 26.909 -7.3479e-016
27.66 27.909 -6.1232e-016
25.928 28.909 -4.8986e-016
24.196 29.909 -3.6739e-016
22.464 30.909 -2.4493e-016
20.732 31.909 -1.2246e-016
19 32.909 0
17.268 33.909 1.2246e-016
15.536 34.909 2.4493e-016
13.804 35.909 3.6739e-016
12.072 36.909 4.8986e-016
10.34 37.909 6.1232e-016
8.6077 38.909 7.3479e-016
6.8756 39.909 8.5725e-016
5.1436 40.909 9.7972e-016
3.4115 41.909 1.1022e-015
1.6795 42.909 1.2246e-015
-0.052559 43.909 1.3471e-015
-1.7846 44.909 1.4696e-015
-3.5167 45.909 1.592e-015
-5.2487 46.909 1.7145e-015
-6.9808 47.909 1.837e-015
-8.7128 48.909 1.9594e-015
-10.445 49.909 2.0819e-015
-12.177 50.909 2.2044e-015
-13.909 51.909 2.3268e-015
-15.641 52.909 2.4493e-015
-17.373 53.909 2.5718e-015
-20.837 55.909 2.8167e-015
-24.301 57.909 3.0616e-015
-43.354 68.909 4.4087e-015
-45.086 69.909 4.5312e-015
-46.818 70.909 4.6537e-015
-48.55 71.909 4.7761e-015
-50.282 72.909 4.8986e-015
72.694 1.909 2
70.962 2.909 2
69.229 3.909 2
67.497 4.909 2
65.765 5.909 2
64.033 6.909 2
62.301 7.909 2
60.569 8.909 2
58.837 9.909 2
57.105 10.909 2
55.373 11.909 2
53.641 12.909 2
51.909 13.909 2
50.177 14.909 2
48.445 15.909 2
46.713 16.909 2
44.981 17.909 2
43.249 18.909 2
41.517 19.909 2
39.785 20.909 2
38.053 21.909 2
36.321 22.909 2
34.588 23.909 2
32.856 24.909 2
31.124 25.909 2
29.392 26.909 2
27.66 27.909 2
25.928 28.909 2
24.196 29.909 2
22.464 30.909 2
20.732 31.909 2
19 32.909 2
17.268 33.909 2
15.536 34.909 2
12.072 36.909 2
10.34 37.909 2
-32.962 62.909 2
-34.694 63.909 2
-36.426 64.909 2
-38.158 65.909 2
-39.89 66.909 2
-41.622 67.909 2
-43.354 68.909 2
96.942 -12.091 4
95.21 -11.091 4
65.765 5.909 4
64.033 6.909 4
62.301 7.909 4
60.569 8.909 4
58.837 9.909 4
57.105 10.909 4
55.373 11.909 4
53.641 12.909 4
51.909 13.909 4
50.177 14.909 4
48.445 15.909 4
46.713 16.909 4
44.981 17.909 4
43.249 18.909 4
-13.909 51.909 4
-15.641 52.909 4
-17.373 53.909 4
-19.105 54.909 4
-20.837 55.909 4
-22.569 56.909 4
-24.301 57.909 4
-26.033 58.909 4
-27.765 59.909 4
-29.497 60.909 4
-31.229 61.909 4
-34.694 63.909 4
96.942 -12.091 6
29.392 26.909 6
27.66 27.909 6
25.928 28.909 6
24.196 29.909 6
22.464 30.909 6
20.732 31.909 6
19 32.909 6
17.268 33.909 6
15.536 34.909 6
13.804 35.909 6
12.072 36.909 6
10.34 37.909 6
8.6077 38.909 6
6.8756 39.909 6
5.1436 40.909 6
3.4115 41.909 6
1.6795 42.909 6
-0.052559 43.909 6
-1.7846 44.909 6
-3.5167 45.909 6
-5.2487 46.909 6
-6.9808 47.909 6
-8.7128 48.909 6
-10.445 49.909 6
-12.177 50.909 6
-13.909 51.909 6
96.942 -12.091 8
95.21 -11.091 8
53.641 12.909 8
51.909 13.909 8
50.177 14.909 8
48.445 15.909 8
46.713 16.909 8
44.981 17.909 8
43.249 18.909 8
41.517 19.909 8
39.785 20.909 8
38.053 21.909 8
36.321 22.909 8
34.588 23.909 8
32.856 24.909 8
31.124 25.909 8
29.392 26.909 8
27.66 27.909 8
25.928 28.909 8
24.196 29.909 8
22.464 30.909 8
20.732 31.909 8
19 32.909 8
17.268 33.909 8
15.536 34.909 8
13.804 35.909 8
12.072 36.909 8
10.34 37.909 8
8.6077 38.909 8
6.8756 39.909 8
5.1436 40.909 8
3.4115 41.909 8
1.6795 42.909 8
95.21 -11.091 10
86.55 -6.091 10
84.818 -5.091 10
83.086 -4.091 10
81.354 -3.091 10
79.622 -2.091 10
77.89 -1.091 10
76.158 -0.091035 10
74.426 0.90897 10
72.694 1.909 10
70.962 2.909 10
69.229 3.909 10
67.497 4.909 10
65.765 5.909 10
64.033 6.909 10
62.301 7.909 10
60.569 8.909 10
58.837 9.909 10
57.105 10.909 10
55.373 11.909 10
53.641 12.909 10
51.909 13.909 10
50.177 14.909 10
48.445 15.909 10
46.713 16.909 10
44.981 17.909 10
43.249 18.909 10
41.517 19.909 10
38.053 21.909 10
36.321 22.909 10
34.588 23.909 10
32.856 24.909 10
31.124 25.909 10
25.928 28.909 10
24.196 29.909 10
22.464 30.909 10
20.732 31.909 10
15.536 34.909 10
13.804 35.909 10
12.072 36.909 10
10.34 37.909 10
8.6077 38.909 10
6.8756 39.909 10
5.1436 40.909 10
3.4115 41.909 10
1.6795 42.909 10
-0.052559 43.909 10
-1.7846 44.909 10
-3.5167 45.909 10
95.21 -11.091 12
93.478 -10.091 12
91.746 -9.091 12
90.014 -8.091 12
88.282 -7.091 12
86.55 -6.091 12
84.818 -5.091 12
83.086 -4.091 12
81.354 -3.091 12
79.622 -2.091 12
77.89 -1.091 12
76.158 -0.091035 12
74.426 0.90897 12
72.694 1.909 12
70.962 2.909 12
69.229 3.909 12
67.497 4.909 12
65.765 5.909 12
64.033 6.909 12
62.301 7.909 12
38.053 21.909 12
36.321 22.909 12
34.588 23.909 12
32.856 24.909 12
31.124 25.909 12
27.66 27.909 12
25.928 28.909 12
24.196 29.909 12
22.464 30.909 12
20.732 31.909 12
15.536 34.909 12
13.804 35.909 12
6.8756 39.909 12
5.1436 40.909 12
3.4115 41.909 12
1.6795 42.909 12
-0.052559 43.909 12
-1.7846 44.909 12
-3.5167 45.909 12
-5.2487 46.909 12
-6.9808 47.909 12
-8.7128 48.909 12
95.21 -11.091 14
93.478 -10.091 14
38.053 21.909 14
36.321 22.909 14
34.588 23.909 14
32.856 24.909 14
31.124 25.909 14
27.66 27.909 14
25.928 28.909 14
24.196 29.909 14
22.464 30.909 14
20.732 31.909 14
19 32.909 14
17.268 33.909 14
15.536 34.909 14
13.804 35.909 14
12.072 36.909 14
5.1436 40.909 14
3.4115 41.909 14
-3.5167 45.909 14
-5.2487 46.909 14
-8.7128 48.909 14
-10.445 49.909 14
38.053 21.909 16
36.321 22.909 16
34.588 23.909 16
32.856 24.909 16
31.124 25.909 16
25.928 28.909 16
24.196 29.909 16
22.464 30.909 16
20.732 31.909 16
19 32.909 16
17.268 33.909 16
13.804 35.909 16
12.072 36.909 16
5.1436 40.909 16
3.4115 41.909 16
1.6795 42.909 16
-0.052559 43.909 16
-1.7846 44.909 16
-3.5167 45.909 16
-5.2487 46.909 16
-6.9808 47.909 16
-8.7128 48.909 16
-10.445 49.909 16
38.053 21.909 18
36.321 22.909 18
34.588 23.909 18
32.856 24.909 18
31.124 25.909 18
25.928 28.909 18
24.196 29.909 18
22.464 30.909 18
20.732 31.909 18
19 32.909 18
17.268 33.909 18
12.072 36.909 18
10.34 37.909 18
5.1436 40.909 18
3.4115 41.909 18
-1.7846 44.909 18
-3.5167 45.909 18
-5.2487 46.909 18
-6.9808 47.909 18
38.053 21.909 20
36.321 22.909 20
34.588 23.909 20
32.856 24.909 20
31.124 25.909 20
25.928 28.909 20
24.196 29.909 20
22.464 30.909 20
20.732 31.909 20
19 32.909 20
17.268 33.909 20
12.072 36.909 20
10.34 37.909 20
8.6077 38.909 20
6.8756 39.909 20
5.1436 40.909 20
3.4115 41.909 20
1.6795 42.909 20
-0.052559 43.909 20
38.053 21.909 22
36.321 22.909 22
34.588 23.909 22
32.856 24.909 22
31.124 25.909 22
25.928 28.909 22
24.196 29.909 22
22.464 30.909 22
20.732 31.909 22
19 32.909 22
13.804 35.909 22
12.072 36.909 22
10.34 37.909 22
8.6077 38.909 22
6.8756 39.909 22
5.1436 40.909 22
38.053 21.909 24
36.321 22.909 24
34.588 23.909 24
32.856 24.909 24
31.124 25.909 24
22.464 30.909 24
20.732 31.909 24
19 32.909 24
17.268 33.909 24
15.536 34.909 24
22.464 30.909 26
20.732 31.909 26
19 32.909 26
17.268 33.909 26
20.732 31.909 28
-13.177 49.177 -32
-16.641 51.177 -32
-18.373 52.177 -32
-20.105 53.177 -32
-21.837 54.177 -32
-23.569 55.177 -32
-25.301 56.177 -32
-27.033 57.177 -32
-28.765 58.177 -32
-30.497 59.177 -32
-32.229 60.177 -32
-33.962 61.177 -32
-35.694 62.177 -32
-37.426 63.177 -32
-39.158 64.177 -32
-40.89 65.177 -32
-42.622 66.177 -32
23.196 28.177 -30
19.732 30.177 -30
18 31.177 -30
16.268 32.177 -30
14.536 33.177 -30
12.804 34.177 -30
11.072 35.177 -30
9.3397 36.177 -30
7.6077 37.177 -30
5.8756 38.177 -30
4.1436 39.177 -30
2.4115 40.177 -30
0.67949 41.177 -30
-1.0526 42.177 -30
-2.7846 43.177 -30
-4.5167 44.177 -30
-6.2487 45.177 -30
-7.9808 46.177 -30
-9.7128 47.177 -30
-11.445 48.177 -30
-13.177 49.177 -30
-14.909 50.177 -30
-16.641 51.177 -30
-18.373 52.177 -30
-20.105 53.177 -30
-21.837 54.177 -30
-23.569 55.177 -30
-25.301 56.177 -30
-27.033 57.177 -30
-28.765 58.177 -30
-30.497 59.177 -30
-32.229 60.177 -30
-33.962 61.177 -30
-35.694 62.177 -30
-37.426 63.177 -30
-39.158 64.177 -30
-40.89 65.177 -30
-42.622 66.177 -30
-44.354 67.177 -30
-46.086 68.177 -30
-47.818 69.177 -30
56.105 9.1769 -28
54.373 10.177 -28
52.641 11.177 -28
50.909 12.177 -28
49.177 13.177 -28
47.445 14.177 -28
45.713 15.177 -28
43.981 16.177 -28
42.249 17.177 -28
40.517 18.177 -28
38.785 19.177 -28
37.053 20.177 -28
35.321 21.177 -28
33.588 22.177 -28
31.856 23.177 -28
30.124 24.177 -28
28.392 25.177 -28
26.66 26.177 -28
24.928 27.177 -28
23.196 28.177 -28
21.464 29.177 -28
19.732 30.177 -28
18 31.177 -28
16.268 32.177 -28
14.536 33.177 -28
12.804 34.177 -28
11.072 35.177 -28
9.3397 36.177 -28
7.6077 37.177 -28
5.8756 38.177 -28
4.1436 39.177 -28
2.4115 40.177 -28
0.67949 41.177 -28
-1.0526 42.177 -28
-2.7846 43.177 -28
-4.5167 44.177 -28
-6.2487 45.177 -28
-7.9808 46.177 -28
-14.909 50.177 -28
-21.837 54.177 -28
-23.569 55.177 -28
-30.497 59.177 -28
-32.229 60.177 -28
-40.89 65.177 -28
-42.622 66.177 -28
-44.354 67.177 -28
-46.086 68.177 -28
-47.818 69.177 -28
-49.55 70.177 -28
-51.282 71.177 -28
59.569 7.1769 -26
57.837 8.1769 -26
56.105 9.1769 -26
54.373 10.177 -26
52.641 11.177 -26
50.909 12.177 -26
49.177 13.177 -26
47.445 14.177 -26
45.713 15.177 -26
43.981 16.177 -26
42.249 17.177 -26
40.517 18.177 -26
38.785 19.177 -26
37.053 20.177 -26
35.321 21.177 -26
33.588 22.177 -26
31.856 23.177 -26
30.124 24.177 -26
28.392 25.177 -26
26.66 26.177 -26
24.928 27.177 -26
23.196 28.177 -26
21.464 29.177 -26
19.732 30.177 -26
14.536 33.177 -26
12.804 34.177 -26
11.072 35.177 -26
4.1436 39.177 -26
-6.2487 45.177 -26
-11.445 48.177 -26
-13.177 49.177 -26
-16.641 51.177 -26
-18.373 52.177 -26
-20.105 53.177 -26
-21.837 54.177 -26
-25.301 56.177 -26
-30.497 59.177 -26
-33.962 61.177 -26
-35.694 62.177 -26
-37.426 63.177 -26
-39.158 64.177 -26
-40.89 65.177 -26
-44.354 67.177 -26
-49.55 70.177 -26
-51.282 71.177 -26
-53.014 72.177 -26
-54.746 73.177 -26
63.033 5.1769 -24
61.301 6.1769 -24
59.569 7.1769 -24
57.837 8.1769 -24
56.105 9.1769 -24
54.373 10.177 -24
50.909 12.177 -24
49.177 13.177 -24
47.445 14.177 -24
40.517 18.177 -24
38.785 19.177 -24
30.124 24.177 -24
28.392 25.177 -24
23.196 28.177 -24
18 31.177 -24
16.268 32.177 -24
14.536 33.177 -24
11.072 35.177 -24
5.8756 38.177 -24
2.4115 40.177 -24
0.67949 41.177 -24
-1.0526 42.177 -24
-2.7846 43.177 -24
-4.5167 44.177 -24
-7.9808 46.177 -24
-11.445 48.177 -24
-14.909 50.177 -24
-16.641 51.177 -24
-18.373 52.177 -24
-20.105 53.177 -24
-21.837 54.177 -24
-23.569 55.177 -24
-25.301 56.177 -24
-27.033 57.177 -24
-28.765 58.177 -24
-32.229 60.177 -24
-33.962 61.177 -24
-35.694 62.177 -24
-37.426 63.177 -24
-39.158 64.177 -24
-40.89 65.177 -24
-44.354 67.177 -24
-53.014 72.177 -24
-54.746 73.177 -24
-56.478 74.177 -24
66.497 3.1769 -22
64.765 4.1769 -22
63.033 5.1769 -22
61.301 6.1769 -22
59.569 7.1769 -22
57.837 8.1769 -22
54.373 10.177 -22
52.641 11.177 -22
50.909 12.177 -22
47.445 14.177 -22
45.713 15.177 -22
42.249 17.177 -22
40.517 18.177 -22
37.053 20.177 -22
35.321 21.177 -22
33.588 22.177 -22
31.856 23.177 -22
28.392 25.177 -22
26.66 26.177 -22
24.928 27.177 -22
23.196 28.177 -22
21.464 29.177 -22
19.732 30.177 -22
18 31.177 -22
16.268 32.177 -22
14.536 33.177 -22
12.804 34.177 -22
9.3397 36.177 -22
7.6077 37.177 -22
5.8756 38.177 -22
4.1436 39.177 -22
2.4115 40.177 -22
0.67949 41.177 -22
-1.0526 42.177 -22
-2.7846 43.177 -22
-4.5167 44.177 -22
-6.2487 45.177 -22
-7.9808 46.177 -22
-9.7128 47.177 -22
-11.445 48.177 -22
-14.909 50.177 -22
-16.641 51.177 -22
-18.373 52.177 -22
-20.105 53.177 -22
-21.837 54.177 -22
-23.569 55.177 -22
-27.033 57.177 -22
-28.765 58.177 -22
-32.229 60.177 -22
-33.962 61.177 -22
-35.694 62.177 -22
-39.158 64.177 -22
-40.89 65.177 -22
-42.622 66.177 -22
-44.354 67.177 -22
-54.746 73.177 -22
-56.478 74.177 -22
-58.21 75.177 -22
68.229 2.1769 -20
66.497 3.1769 -20
64.765 4.1769 -20
59.569 7.1769 -20
56.105 9.1769 -20
54.373 10.177 -20
52.641 11.177 -20
50.909 12.177 -20
49.177 13.177 -20
45.713 15.177 -20
42.249 17.177 -20
38.785 19.177 -20
37.053 20.177 -20
35.321 21.177 -20
33.588 22.177 -20
31.856 23.177 -20
30.124 24.177 -20
26.66 26.177 -20
24.928 27.177 -20
21.464 29.177 -20
19.732 30.177 -20
18 31.177 -20
16.268 32.177 -20
14.536 33.177 -20
12.804 34.177 -20
9.3397 36.177 -20
7.6077 37.177 -20
4.1436 39.177 -20
2.4115 40.177 -20
0.67949 41.177 -20
-2.7846 43.177 -20
-4.5167 44.177 -20
-6.2487 45.177 -20
-9.7128 47.177 -20
-11.445 48.177 -20
-14.909 50.177 -20
-16.641 51.177 -20
-21.837 54.177 -20
-23.569 55.177 -20
-27.033 57.177 -20
-28.765 58.177 -20
-32.229 60.177 -20
-33.962 61.177 -20
-35.694 62.177 -20
-39.158 64.177 -20
-40.89 65.177 -20
-42.622 66.177 -20
-44.354 67.177 -20
-51.282 71.177 -20
-53.014 72.177 -20
-54.746 73.177 -20
-56.478 74.177 -20
-58.21 75.177 -20
-59.942 76.177 -20
71.694 0.17691 -18
69.962 1.1769 -18
68.229 2.1769 -18
66.497 3.1769 -18
61.301 6.1769 -18
57.837 8.1769 -18
56.105 9.1769 -18
54.373 10.177 -18
52.641 11.177 -18
50.909 12.177 -18
49.177 13.177 -18
47.445 14.177 -18
43.981 16.177 -18
42.249 17.177 -18
38.785 19.177 -18
37.053 20.177 -18
35.321 21.177 -18
33.588 22.177 -18
31.856 23.177 -18
30.124 24.177 -18
26.66 26.177 -18
24.928 27.177 -18
21.464 29.177 -18
19.732 30.177 -18
14.536 33.177 -18
12.804 34.177 -18
11.072 35.177 -18
9.3397 36.177 -18
7.6077 37.177 -18
4.1436 39.177 -18
2.4115 40.177 -18
0.67949 41.177 -18
-2.7846 43.177 -18
-4.5167 44.177 -18
-6.2487 45.177 -18
-9.7128 47.177 -18
-11.445 48.177 -18
-14.909 50.177 -18
-16.641 51.177 -18
-18.373 52.177 -18
-20.105 53.177 -18
-21.837 54.177 -18
-23.569 55.177 -18
-27.033 57.177 -18
-28.765 58.177 -18
-32.229 60.177 -18
-33.962 61.177 -18
-35.694 62.177 -18
-37.426 63.177 -18
-39.158 64.177 -18
-40.89 65.177 -18
-44.354 67.177 -18
-49.55 70.177 -18
-51.282 71.177 -18
-53.014 72.177 -18
-54.746 73.177 -18
-56.478 74.177 -18
-58.21 75.177 -18
-59.942 76.177 -18
-61.674 77.177 -18
73.426 -0.82309 -16
71.694 0.17691 -16
69.962 1.1769 -16
61.301 6.1769 -16
57.837 8.1769 -16
56.105 9.1769 -16
54.373 10.177 -16
50.909 12.177 -16
49.177 13.177 -16
47.445 14.177 -16
43.981 16.177 -16
42.249 17.177 -16
40.517 18.177 -16
38.785 19.177 -16
37.053 20.177 -16
33.588 22.177 -16
31.856 23.177 -16
30.124 24.177 -16
26.66 26.177 -16
24.928 27.177 -16
21.464 29.177 -16
19.732 30.177 -16
18 31.177 -16
16.268 32.177 -16
14.536 33.177 -16
12.804 34.177 -16
9.3397 36.177 -16
7.6077 37.177 -16
5.8756 38.177 -16
4.1436 39.177 -16
2.4115 40.177 -16
0.67949 41.177 -16
-1.0526 42.177 -16
-2.7846 43.177 -16
-4.5167 44.177 -16
-6.2487 45.177 -16
-7.9808 46.177 -16
-9.7128 47.177 -16
-11.445 48.177 -16
-14.909 50.177 -16
-16.641 51.177 -16
-18.373 52.177 -16
-20.105 53.177 -16
-21.837 54.177 -16
-23.569 55.177 -16
-25.301 56.177 -16
-27.033 57.177 -16
-28.765 58.177 -16
-30.497 59.177 -16
-33.962 61.177 -16
-35.694 62.177 -16
-37.426 63.177 -16
-39.158 64.177 -16
-44.354 67.177 -16
-47.818 69.177 -16
-49.55 70.177 -16
-58.21 75.177 -16
-59.942 76.177 -16
-61.674 77.177 -16
75.158 -1.8231 -14
73.426 -0.82309 -14
71.694 0.17691 -14
69.962 1.1769 -14
68.229 2.1769 -14
66.497 3.1769 -14
61.301 6.1769 -14
57.837 8.1769 -14
56.105 9.1769 -14
54.373 10.177 -14
52.641 11.177 -14
50.909 12.177 -14
49.177 13.177 -14
47.445 14.177 -14
43.981 16.177 -14
42.249 17.177 -14
38.785 19.177 -14
37.053 20.177 -14
35.321 21.177 -14
33.588 22.177 -14
31.856 23.177 -14
30.124 24.177 -14
26.66 26.177 -14
24.928 27.177 -14
21.464 29.177 -14
19.732 30.177 -14
18 31.177 -14
16.268 32.177 -14
14.536 33.177 -14
12.804 34.177 -14
9.3397 36.177 -14
5.8756 38.177 -14
2.4115 40.177 -14
0.67949 41.177 -14
-1.0526 42.177 -14
-2.7846 43.177 -14
-4.5167 44.177 -14
-7.9808 46.177 -14
-11.445 48.177 -14
-13.177 49.177 -14
-16.641 51.177 -14
-18.373 52.177 -14
-20.105 53.177 -14
-25.301 56.177 -14
-30.497 59.177 -14
-32.229 60.177 -14
-40.89 65.177 -14
-42.622 66.177 -14
-47.818 69.177 -14
-49.55 70.177 -14
-58.21 75.177 -14
-59.942 76.177 -14
-61.674 77.177 -14
76.89 -2.8231 -12
75.158 -1.8231 -12
73.426 -0.82309 -12
71.694 0.17691 -12
69.962 1.1769 -12
68.229 2.1769 -12
66.497 3.1769 -12
64.765 4.1769 -12
59.569 7.1769 -12
56.105 9.1769 -12
54.373 10.177 -12
52.641 11.177 -12
50.909 12.177 -12
49.177 13.177 -12
45.713 15.177 -12
42.249 17.177 -12
38.785 19.177 -12
37.053 20.177 -12
35.321 21.177 -12
33.588 22.177 -12
31.856 23.177 -12
28.392 25.177 -12
26.66 26.177 -12
23.196 28.177 -12
18 31.177 -12
16.268 32.177 -12
14.536 33.177 -12
11.072 35.177 -12
9.3397 36.177 -12
5.8756 38.177 -12
4.1436 39.177 -12
-6.2487 45.177 -12
-7.9808 46.177 -12
-14.909 50.177 -12
-16.641 51.177 -12
-21.837 54.177 -12
-23.569 55.177 -12
-25.301 56.177 -12
-33.962 61.177 -12
-35.694 62.177 -12
-37.426 63.177 -12
-39.158 64.177 -12
-40.89 65.177 -12
-47.818 69.177 -12
-49.55 70.177 -12
-58.21 75.177 -12
-59.942 76.177 -12
-61.674 77.177 -12
78.622 -3.8231 -10
76.89 -2.8231 -10
75.158 -1.8231 -10
73.426 -0.82309 -10
66.497 3.1769 -10
64.765 4.1769 -10
59.569 7.1769 -10
57.837 8.1769 -10
54.373 10.177 -10
52.641 11.177 -10
50.909 12.177 -10
45.713 15.177 -10
40.517 18.177 -10
30.124 24.177 -10
28.392 25.177 -10
21.464 29.177 -10
19.732 30.177 -10
14.536 33.177 -10
12.804 34.177 -10
11.072 35.177 -10
2.4115 40.177 -10
0.67949 41.177 -10
-1.0526 42.177 -10
-2.7846 43.177 -10
-4.5167 44.177 -10
-16.641 51.177 -10
-18.373 52.177 -10
-20.105 53.177 -10
-21.837 54.177 -10
-47.818 69.177 -10
-49.55 70.177 -10
-51.282 71.177 -10
-58.21 75.177 -10
-59.942 76.177 -10
-61.674 77.177 -10
-66.87 80.177 -10
-68.603 81.177 -10
78.622 -3.8231 -8
76.89 -2.8231 -8
75.158 -1.8231 -8
66.497 3.1769 -8
64.765 4.1769 -8
57.837 8.1769 -8
56.105 9.1769 -8
49.177 13.177 -8
47.445 14.177 -8
38.785 19.177 -8
37.053 20.177 -8
35.321 21.177 -8
33.588 22.177 -8
31.856 23.177 -8
30.124 24.177 -8
19.732 30.177 -8
18 31.177 -8
16.268 32.177 -8
14.536 33.177 -8
-49.55 70.177 -8
-51.282 71.177 -8
-53.014 72.177 -8
-54.746 73.177 -8
-56.478 74.177 -8
-58.21 75.177 -8
-59.942 76.177 -8
-61.674 77.177 -8
-65.138 79.177 -8
-66.87 80.177 -8
78.622 -3.8231 -6
76.89 -2.8231 -6
75.158 -1.8231 -6
64.765 4.1769 -6
56.105 9.1769 -6
54.373 10.177 -6
52.641 11.177 -6
50.909 12.177 -6
49.177 13.177 -6
-51.282 71.177 -6
-53.014 72.177 -6
-54.746 73.177 -6
-56.478 74.177 -6
-58.21 75.177 -6
-59.942 76.177 -6
-63.406 78.177 -6
-65.138 79.177 -6
78.622 -3.8231 -4
76.89 -2.8231 -4
75.158 -1.8231 -4
73.426 -0.82309 -4
66.497 3.1769 -4
64.765 4.1769 -4
-28.765 58.177 -4
-32.229 60.177 -4
-33.962 61.177 -4
-35.694 62.177 -4
-37.426 63.177 -4
-39.158 64.177 -4
-40.89 65.177 -4
-42.622 66.177 -4
-44.354 67.177 -4
-46.086 68.177 -4
-47.818 69.177 -4
-49.55 70.177 -4
-51.282 71.177 -4
-53.014 72.177 -4
-54.746 73.177 -4
-56.478 74.177 -4
-59.942 76.177 -4
-61.674 77.177 -4
-63.406 78.177 -4
78.622 -3.8231 -2
76.89 -2.8231 -2
75.158 -1.8231 -2
73.426 -0.82309 -2
71.694 0.17691 -2
69.962 1.1769 -2
68.229 2.1769 -2
66.497 3.1769 -2
64.765 4.1769 -2
5.8756 38.177 -2
4.1436 39.177 -2
2.4115 40.177 -2
0.67949 41.177 -2
-1.0526 42.177 -2
-2.7846 43.177 -2
-4.5167 44.177 -2
-6.2487 45.177 -2
-7.9808 46.177 -2
-9.7128 47.177 -2
-11.445 48.177 -2
-13.177 49.177 -2
-14.909 50.177 -2
-16.641 51.177 -2
-18.373 52.177 -2
-20.105 53.177 -2
-21.837 54.177 -2
-23.569 55.177 -2
-25.301 56.177 -2
-27.033 57.177 -2
-28.765 58.177 -2
-30.497 59.177 -2
-32.229 60.177 -2
-33.962 61.177 -2
-35.694 62.177 -2
-37.426 63.177 -2
-39.158 64.177 -2
-40.89 65.177 -2
-42.622 66.177 -2
-44.354 67.177 -2
-46.086 68.177 -2
-47.818 69.177 -2
-49.55 70.177 -2
-51.282 71.177 -2
-53.014 72.177 -2
-54.746 73.177 -2
-56.478 74.177 -2
-58.21 75.177 -2
-59.942 76.177 -2
75.158 -1.8231 -4.0413e-015
73.426 -0.82309 -3.9189e-015
71.694 0.17691 -3.7964e-015
69.962 1.1769 -3.6739e-015
68.229 2.1769 -3.5515e-015
40.517 18.177 -1.592e-015
37.053 20.177 -1.3471e-015
35.321 21.177 -1.2246e-015
33.588 22.177 -1.1022e-015
31.856 23.177 -9.7972e-016
30.124 24.177 -8.5725e-016
28.392 25.177 -7.3479e-016
26.66 26.177 -6.1232e-016
24.928 27.177 -4.8986e-016
23.196 28.177 -3.6739e-016
21.464 29.177 -2.4493e-016
19.732 30.177 -1.2246e-016
18 31.177 0
16.268 32.177 1.2246e-016
14.536 33.177 2.4493e-016
12.804 34.177 3.6739e-016
11.072 35.177 4.8986e-016
9.3397 36.177 6.1232e-016
7.6077 37.177 7.3479e-016
5.8756 38.177 8.5725e-016
4.1436 39.177 9.7972e-016
2.4115 40.177 1.1022e-015
0.67949 41.177 1.2246e-015
-1.0526 42.177 1.3471e-015
-2.7846 43.177 1.4696e-015
-4.5167 44.177 1.592e-015
-6.2487 45.177 1.7145e-015
-7.9808 46.177 1.837e-015
-9.7128 47.177 1.9594e-015
-11.445 48.177 2.0819e-015
-13.177 49.177 2.2044e-015
-14.909 50.177 2.3268e-015
-16.641 51.177 2.4493e-015
-18.373 52.177 2.5718e-015
-20.105 53.177 2.6942e-015
-21.837 54.177 2.8167e-015
-23.569 55.177 2.9392e-015
-25.301 56.177 3.0616e-015
-27.033 57.177 3.1841e-015
-44.354 67.177 4.4087e-015
-46.086 68.177 4.5312e-015
-47.818 69.177 4.6537e-015
-49.55 70.177 4.7761e-015
-51.282 71.177 4.8986e-015
-53.014 72.177 5.0211e-015
71.694 0.17691 2
69.962 1.1769 2
68.229 2.1769 2
66.497 3.1769 2
64.765 4.1769 2
63.033 5.1769 2
61.301 6.1769 2
59.569 7.1769 2
57.837 8.1769 2
56.105 9.1769 2
54.373 10.177 2
52.641 11.177 2
50.909 12.177 2
49.177 13.177 2
47.445 14.177 2
45.713 15.177 2
43.981 16.177 2
42.249 17.177 2
40.517 18.177 2
38.785 19.177 2
37.053 20.177 2
35.321 21.177 2
33.588 22.177 2
31.856 23.177 2
30.124 24.177 2
28.392 25.177 2
26.66 26.177 2
24.928 27.177 2
23.196 28.177 2
21.464 29.177 2
19.732 30.177 2
18 31.177 2
16.268 32.177 2
14.536 33.177 2
12.804 34.177 2
11.072 35.177 2
9.3397 36.177 2
-33.962 61.177 2
-35.694 62.177 2
-37.426 63.177 2
-39.158 64.177 2
-40.89 65.177 2
-42.622 66.177 2
-44.354 67.177 2
94.21 -12.823 4
66.497 3.1769 4
64.765 4.1769 4
63.033 5.1769 4
61.301 6.1769 4
59.569 7.1769 4
57.837 8.1769 4
56.105 9.1769 4
54.373 10.177 4
52.641 11.177 4
50.909 12.177 4
47.445 14.177 4
45.713 15.177 4
43.981 16.177 4
42.249 17.177 4
-14.909 50.177 4
-16.641 51.177 4
-18.373 52.177 4
-20.105 53.177 4
-21.837 54.177 4
-23.569 55.177 4
-25.301 56.177 4
-27.033 57.177 4
-28.765 58.177 4
-30.497 59.177 4
-32.229 60.177 4
-35.694 62.177 4
95.942 -13.823 6
28.392 25.177 6
26.66 26.177 6
24.928 27.177 6
23.196 28.177 6
21.464 29.177 6
19.732 30.177 6
18 31.177 6
16.268 32.177 6
14.536 33.177 6
12.804 34.177 6
11.072 35.177 6
9.3397 36.177 6
7.6077 37.177 6
5.8756 38.177 6
4.1436 39.177 6
2.4115 40.177 6
0.67949 41.177 6
-1.0526 42.177 6
-2.7846 43.177 6
-4.5167 44.177 6
-6.2487 45.177 6
-7.9808 46.177 6
-9.7128 47.177 6
-11.445 48.177 6
-13.177 49.177 6
-14.909 50.177 6
95.942 -13.823 8
52.641 11.177 8
50.909 12.177 8
49.177 13.177 8
47.445 14.177 8
45.713 15.177 8
43.981 16.177 8
42.249 17.177 8
40.517 18.177 8
38.785 19.177 8
37.053 20.177 8
35.321 21.177 8
33.588 22.177 8
31.856 23.177 8
30.124 24.177 8
28.392 25.177 8
26.66 26.177 8
24.928 27.177 8
23.196 28.177 8
21.464 29.177 8
19.732 30.177 8
18 31.177 8
16.268 32.177 8
14.536 33.177 8
12.804 34.177 8
11.072 35.177 8
7.6077 37.177 8
2.4115 40.177 8
0.67949 41.177 8
-1.0526 42.177 8
94.21 -12.823 10
85.55 -7.8231 10
83.818 -6.8231 10
82.086 -5.8231 10
80.354 -4.8231 10
78.622 -3.8231 10
76.89 -2.8231 10
75.158 -1.8231 10
73.426 -0.82309 10
71.694 0.17691 10
69.962 1.1769 10
68.229 2.1769 10
66.497 3.1769 10
64.765 4.1769 10
63.033 5.1769 10
61.301 6.1769 10
59.569 7.1769 10
57.837 8.1769 10
56.105 9.1769 10
54.373 10.177 10
52.641 11.177 10
50.909 12.177 10
49.177 13.177 10
47.445 14.177 10
45.713 15.177 10
43.981 16.177 10
42.249 17.177 10
40.517 18.177 10
37.053 20.177 10
35.321 21.177 10
33.588 22.177 10
31.856 23.177 10
30.124 24.177 10
28.392 25.177 10
26.66 26.177 10
24.928 27.177 10
14.536 33.177 10
12.804 34.177 10
11.072 35.177 10
9.3397 36.177 10
7.6077 37.177 10
5.8756 38.177 10
4.1436 39.177 10
2.4115 40.177 10
0.67949 41.177 10
-1.0526 42.177 10
-2.7846 43.177 10
-4.5167 44.177 10
-6.2487 45.177 10
-7.9808 46.177 10
94.21 -12.823 12
92.478 -11.823 12
90.746 -10.823 12
89.014 -9.8231 12
87.282 -8.8231 12
85.55 -7.8231 12
83.818 -6.8231 12
82.086 -5.8231 12
80.354 -4.8231 12
78.622 -3.8231 12
76.89 -2.8231 12
75.158 -1.8231 12
73.426 -0.82309 12
71.694 0.17691 12
69.962 1.1769 12
68.229 2.1769 12
66.497 3.1769 12
64.765 4.1769 12
63.033 5.1769 12
61.301 6.1769 12
45.713 15.177 12
43.981 16.177 12
42.249 17.177 12
40.517 18.177 12
38.785 19.177 12
37.053 20.177 12
33.588 22.177 12
31.856 23.177 12
30.124 24.177 12
28.392 25.177 12
26.66 26.177 12
14.536 33.177 12
12.804 34.177 12
5.8756 38.177 12
4.1436 39.177 12
2.4115 40.177 12
0.67949 41.177 12
-1.0526 42.177 12
-2.7846 43.177 12
-4.5167 44.177 12
-6.2487 45.177 12
-7.9808 46.177 12
-9.7128 47.177 12
-11.445 48.177 12
-13.177 49.177 12
92.478 -11.823 14
45.713 15.177 14
43.981 16.177 14
42.249 17.177 14
40.517 18.177 14
38.785 19.177 14
37.053 20.177 14
33.588 22.177 14
31.856 23.177 14
30.124 24.177 14
28.392 25.177 14
26.66 26.177 14
24.928 27.177 14
23.196 28.177 14
21.464 29.177 14
19.732 30.177 14
18 31.177 14
16.268 32.177 14
14.536 33.177 14
12.804 34.177 14
11.072 35.177 14
5.8756 38.177 14
4.1436 39.177 14
2.4115 40.177 14
0.67949 41.177 14
-4.5167 44.177 14
-6.2487 45.177 14
-7.9808 46.177 14
-9.7128 47.177 14
-11.445 48.177 14
-13.177 49.177 14
45.713 15.177 16
43.981 16.177 16
42.249 17.177 16
40.517 18.177 16
38.785 19.177 16
37.053 20.177 16
33.588 22.177 16
31.856 23.177 16
30.124 24.177 16
28.392 25.177 16
26.66 26.177 16
24.928 27.177 16
23.196 28.177 16
11.072 35.177 16
9.3397 36.177 16
5.8756 38.177 16
4.1436 39.177 16
2.4115 40.177 16
0.67949 41.177 16
-1.0526 42.177 16
-2.7846 43.177 16
-4.5167 44.177 16
-9.7128 47.177 16
-11.445 48.177 16
-13.177 49.177 16
45.713 15.177 18
43.981 16.177 18
42.249 17.177 18
40.517 18.177 18
38.785 19.177 18
37.053 20.177 18
33.588 22.177 18
31.856 23.177 18
30.124 24.177 18
28.392 25.177 18
26.66 26.177 18
24.928 27.177 18
23.196 28.177 18
21.464 29.177 18
19.732 30.177 18
18 31.177 18
11.072 35.177 18
9.3397 36.177 18
7.6077 37.177 18
5.8756 38.177 18
4.1436 39.177 18
2.4115 40.177 18
0.67949 41.177 18
-2.7846 43.177 18
-4.5167 44.177 18
-6.2487 45.177 18
-7.9808 46.177 18
-9.7128 47.177 18
43.981 16.177 20
42.249 17.177 20
40.517 18.177 20
38.785 19.177 20
37.053 20.177 20
31.856 23.177 20
30.124 24.177 20
28.392 25.177 20
26.66 26.177 20
24.928 27.177 20
23.196 28.177 20
21.464 29.177 20
18 31.177 20
16.268 32.177 20
14.536 33.177 20
12.804 34.177 20
11.072 35.177 20
7.6077 37.177 20
5.8756 38.177 20
4.1436 39.177 20
2.4115 40.177 20
0.67949 41.177 20
-1.0526 42.177 20
-2.7846 43.177 20
45.713 15.177 22
43.981 16.177 22
42.249 17.177 22
40.517 18.177 22
38.785 19.177 22
37.053 20.177 22
31.856 23.177 22
30.124 24.177 22
28.392 25.177 22
26.66 26.177 22
24.928 27.177 22
23.196 28.177 22
21.464 29.177 22
19.732 30.177 22
18 31.177 22
16.268 32.177 22
14.536 33.177 22
12.804 34.177 22
11.072 35.177 22
9.3397 36.177 22
7.6077 37.177 22
5.8756 38.177 22
4.1436 39.177 22
2.4115 40.177 22
45.713 15.177 24
43.981 16.177 24
42.249 17.177 24
40.517 18.177 24
38.785 19.177 24
37.053 20.177 24
35.321 21.177 24
33.588 22.177 24
31.856 23.177 24
30.124 24.177 24
28.392 25.177 24
23.196 28.177 24
21.464 29.177 24
18 31.177 24
16.268 32.177 24
14.536 33.177 24
12.804 34.177 24
11.072 35.177 24
45.713 15.177 26
43.981 16.177 26
42.249 17.177 26
40.517 18.177 26
38.785 19.177 26
23.196 28.177 26
21.464 29.177 26
18 31.177 26
16.268 32.177 26
14.536 33.177 26
12.804 34.177 26
23.196 28.177 28
21.464 29.177 28
19.732 30.177 28
18 31.177 28
-14.177 47.445 -32
-15.909 48.445 -32
-17.641 49.445 -32
-19.373 50.445 -32
-21.105 51.445 -32
-22.837 52.445 -32
-24.569 53.445 -32
-26.301 54.445 -32
-28.033 55.445 -32
-29.765 56.445 -32
-31.497 57.445 -32
-33.229 58.445 -32
-34.962 59.445 -32
-36.694 60.445 -32
-38.426 61.445 -32
-40.158 62.445 -32
-41.89 63.445 -32
-43.622 64.445 -32
22.196 26.445 -30
18.732 28.445 -30
17 29.445 -30
15.268 30.445 -30
13.536 31.445 -30
11.804 32.445 -30
10.072 33.445 -30
8.3397 34.445 -30
6.6077 35.445 -30
4.8756 36.445 -30
3.1436 37.445 -30
1.4115 38.445 -30
-0.32051 39.445 -30
-2.0526 40.445 -30
-3.7846 41.445 -30
-5.5167 42.445 -30
-7.2487 43.445 -30
-8.9808 44.445 -30
-10.713 45.445 -30
-12.445 46.445 -30
-14.177 47.445 -30
-15.909 48.445 -30
-17.641 49.445 -30
-19.373 50.445 -30
-21.105 51.445 -30
-22.837 52.445 -30
-24.569 53.445 -30
-26.301 54.445 -30
-28.033 55.445 -30
-29.765 56.445 -30
-31.497 57.445 -30
-33.229 58.445 -30
-34.962 59.445 -30
-36.694 60.445 -30
-38.426 61.445 -30
-40.158 62.445 -30
-41.89 63.445 -30
-43.622 64.445 -30
-45.354 65.445 -30
-47.086 66.445 -30
-48.818 67.445 -30
55.105 7.4449 -28
53.373 8.4449 -28
51.641 9.4449 -28
49.909 10.445 -28
48.177 11.445 -28
46.445 12.445 -28
44.713 13.445 -28
42.981 14.445 -28
41.249 15.445 -28
39.517 16.445 -28
37.785 17.445 -28
36.053 18.445 -28
34.321 19.445 -28
32.588 20.445 -28
30.856 21.445 -28
29.124 22.445 -28
27.392 23.445 -28
25.66 24.445 -28
23.928 25.445 -28
22.196 26.445 -28
20.464 27.445 -28
18.732 28.445 -28
17 29.445 -28
15.268 30.445 -28
13.536 31.445 -28
11.804 32.445 -28
10.072 33.445 -28
8.3397 34.445 -28
6.6077 35.445 -28
4.8756 36.445 -28
3.1436 37.445 -28
1.4115 38.445 -28
-0.32051 39.445 -28
-2.0526 40.445 -28
-3.7846 41.445 -28
-5.5167 42.445 -28
-7.2487 43.445 -28
-8.9808 44.445 -28
-14.177 47.445 -28
-15.909 48.445 -28
-17.641 49.445 -28
-19.373 50.445 -28
-21.105 51.445 -28
-22.837 52.445 -28
-24.569 53.445 -28
-31.497 57.445 -28
-33.229 58.445 -28
-34.962 59.445 -28
-36.694 60.445 -28
-38.426 61.445 -28
-40.158 62.445 -28
-41.89 63.445 -28
-43.622 64.445 -28
-45.354 65.445 -28
-47.086 66.445 -28
-48.818 67.445 -28
-50.55 68.445 -28
-52.282 69.445 -28
60.301 4.4449 -26
58.569 5.4449 -26
56.837 6.4449 -26
55.105 7.4449 -26
53.373 8.4449 -26
51.641 9.4449 -26
49.909 10.445 -26
48.177 11.445 -26
46.445 12.445 -26
44.713 13.445 -26
42.981 14.445 -26
41.249 15.445 -26
39.517 16.445 -26
37.785 17.445 -26
36.053 18.445 -26
34.321 19.445 -26
32.588 20.445 -26
30.856 21.445 -26
29.124 22.445 -26
27.392 23.445 -26
25.66 24.445 -26
20.464 27.445 -26
18.732 28.445 -26
17 29.445 -26
15.268 30.445 -26
13.536 31.445 -26
11.804 32.445 -26
3.1436 37.445 -26
1.4115 38.445 -26
-0.32051 39.445 -26
-2.0526 40.445 -26
-3.7846 41.445 -26
-5.5167 42.445 -26
-7.2487 43.445 -26
