16.981 -30.588 12
14.383 -29.088 12
11.785 -27.588 12
-32.383 -2.0885 12
-34.981 -0.58846 12
-50.569 8.4115 12
-53.167 9.9115 12
-55.765 11.412 12
-58.363 12.912 12
-60.962 14.412 12
-63.56 15.912 12
-66.158 17.412 12
107.91 -83.088 15
92.325 -74.088 15
89.727 -72.588 15
87.129 -71.088 15
84.531 -69.588 15
81.933 -68.088 15
79.335 -66.588 15
76.737 -65.088 15
74.138 -63.588 15
71.54 -62.088 15
68.942 -60.588 15
66.344 -59.088 15
63.746 -57.588 15
32.569 -39.588 15
-32.383 -2.0885 15
-34.981 -0.58846 15
-50.569 8.4115 15
-53.167 9.9115 15
-55.765 11.412 15
-58.363 12.912 15
-60.962 14.412 15
-63.56 15.912 15
-66.158 17.412 15
-68.756 18.912 15
-71.354 20.412 15
110.51 -84.588 18
92.325 -74.088 18
89.727 -72.588 18
32.569 -39.588 18
-32.383 -2.0885 18
-34.981 -0.58846 18
-60.962 14.412 18
-66.158 17.412 18
-68.756 18.912 18
-71.354 20.412 18
-73.952 21.912 18
-76.55 23.412 18
110.51 -84.588 21
89.727 -72.588 21
68.942 -60.588 21
32.569 -39.588 21
-32.383 -2.0885 21
-34.981 -0.58846 21
-60.962 14.412 21
-66.158 17.412 21
-68.756 18.912 21
-71.354 20.412 21
-76.55 23.412 21
-79.148 24.912 21
110.51 -84.588 24
89.727 -72.588 24
74.138 -63.588 24
71.54 -62.088 24
68.942 -60.588 24
32.569 -39.588 24
-14.196 -12.588 24
-16.794 -11.088 24
-19.392 -9.5885 24
-21.99 -8.0885 24
-24.588 -6.5885 24
-27.187 -5.0885 24
-29.785 -3.5885 24
-32.383 -2.0885 24
-34.981 -0.58846 24
-60.962 14.412 24
-63.56 15.912 24
-66.158 17.412 24
-71.354 20.412 24
-73.952 21.912 24
-76.55 23.412 24
110.51 -84.588 27
107.91 -83.088 27
92.325 -74.088 27
74.138 -63.588 27
32.569 -39.588 27
29.971 -38.088 27
27.373 -36.588 27
24.775 -35.088 27
22.177 -33.588 27
19.579 -32.088 27
16.981 -30.588 27
14.383 -29.088 27
11.785 -27.588 27
9.1865 -26.088 27
6.5885 -24.588 27
3.9904 -23.088 27
1.3923 -21.588 27
-1.2058 -20.088 27
-3.8038 -18.588 27
-6.4019 -17.088 27
-9 -15.588 27
-11.598 -14.088 27
-55.765 11.412 27
-58.363 12.912 27
-60.962 14.412 27
-63.56 15.912 27
-66.158 17.412 27
-68.756 18.912 27
107.91 -83.088 30
105.32 -81.588 30
94.923 -75.588 30
92.325 -74.088 30
76.737 -65.088 30
74.138 -63.588 30
-53.167 9.9115 30
-55.765 11.412 30
-58.363 12.912 30
-60.962 14.412 30
-63.56 15.912 30
105.32 -81.588 33
102.72 -80.088 33
100.12 -78.588 33
97.521 -77.088 33
94.923 -75.588 33
76.737 -65.088 33
74.138 -63.588 33
-42.775 3.9115 33
-45.373 5.4115 33
-47.971 6.9115 33
-50.569 8.4115 33
-53.167 9.9115 33
76.737 -65.088 36
74.138 -63.588 36
19.579 -32.088 36
6.5885 -24.588 36
3.9904 -23.088 36
1.3923 -21.588 36
-1.2058 -20.088 36
-3.8038 -18.588 36
-11.598 -14.088 36
-14.196 -12.588 36
-16.794 -11.088 36
-24.588 -6.5885 36
-27.187 -5.0885 36
-29.785 -3.5885 36
-32.383 -2.0885 36
-34.981 -0.58846 36
-37.579 0.91154 36
-40.177 2.4115 36
76.737 -65.088 39
74.138 -63.588 39
71.54 -62.088 39
19.579 -32.088 39
11.785 -27.588 39
9.1865 -26.088 39
6.5885 -24.588 39
3.9904 -23.088 39
1.3923 -21.588 39
-1.2058 -20.088 39
-3.8038 -18.588 39
-6.4019 -17.088 39
-9 -15.588 39
-11.598 -14.088 39
-14.196 -12.588 39
-16.794 -11.088 39
-19.392 -9.5885 39
-21.99 -8.0885 39
-24.588 -6.5885 39
-27.187 -5.0885 39
-29.785 -3.5885 39
76.737 -65.088 42
74.138 -63.588 42
71.54 -62.088 42
68.942 -60.588 42
66.344 -59.088 42
63.746 -57.588 42
61.148 -56.088 42
58.55 -54.588 42
55.952 -53.088 42
53.354 -51.588 42
50.756 -50.088 42
48.158 -48.588 42
45.56 -47.088 42
42.962 -45.588 42
40.363 -44.088 42
37.765 -42.588 42
35.167 -41.088 42
32.569 -39.588 42
29.971 -38.088 42
27.373 -36.588 42
24.775 -35.088 42
22.177 -33.588 42
19.579 -32.088 42
16.981 -30.588 42
14.383 -29.088 42
11.785 -27.588 42
9.1865 -26.088 42
6.5885 -24.588 42
3.9904 -23.088 42
1.3923 -21.588 42
-1.2058 -20.088 42
-3.8038 -18.588 42
-6.4019 -17.088 42
-9 -15.588 42
-11.598 -14.088 42
-14.196 -12.588 42
-16.794 -11.088 42
-21.99 -8.0885 42
-29.785 -3.5885 42
71.54 -62.088 45
68.942 -60.588 45
66.344 -59.088 45
63.746 -57.588 45
61.148 -56.088 45
58.55 -54.588 45
55.952 -53.088 45
53.354 -51.588 45
50.756 -50.088 45
48.158 -48.588 45
45.56 -47.088 45
42.962 -45.588 45
19.579 -32.088 45
16.981 -30.588 45
-6.4019 -17.088 45
-9 -15.588 45
-14.196 -12.588 45
-16.794 -11.088 45
-21.99 -8.0885 45
-29.785 -3.5885 45
19.579 -32.088 48
16.981 -30.588 48
-6.4019 -17.088 48
-9 -15.588 48
-11.598 -14.088 48
-14.196 -12.588 48
-16.794 -11.088 48
-21.99 -8.0885 48
-24.588 -6.5885 48
-27.187 -5.0885 48
-29.785 -3.5885 48
-32.383 -2.0885 48
-34.981 -0.58846 48
19.579 -32.088 51
16.981 -30.588 51
-6.4019 -17.088 51
-9 -15.588 51
-11.598 -14.088 51
-14.196 -12.588 51
-16.794 -11.088 51
-19.392 -9.5885 51
19.579 -32.088 54
16.981 -30.588 54
-6.4019 -17.088 54
-9 -15.588 54
-11.598 -14.088 54
19.579 -32.088 57
16.981 -30.588 57
14.383 -29.088 57
24.775 -35.088 60
22.177 -33.588 60
19.579 -32.088 60
16.981 -30.588 60
14.383 -29.088 60
24.775 -35.088 63
22.177 -33.588 63
19.579 -32.088 63
16.981 -30.588 63
14.383 -29.088 63
19.579 -32.088 66
16.981 -30.588 66
19.579 -32.088 69
16.981 -30.588 69
19.579 -32.088 72
16.981 -30.588 72
19.579 -32.088 75
16.981 -30.588 75
19.579 -32.088 78
16.981 -30.588 78
19.579 -32.088 81
16.981 -30.588 81
19.579 -32.088 84
16.981 -30.588 84
-83.246 23.813 -30
-85.844 25.313 -30
-88.442 26.813 -30
-91.04 28.313 -27
-93.638 29.813 -27
-96.237 31.313 -27
-98.835 32.813 -27
-101.43 34.313 -27
-104.03 35.813 -27
-104.03 35.813 -24
-106.63 37.313 -24
-109.23 38.813 -24
-111.82 40.313 -24
-111.82 40.313 -21
-114.42 41.813 -21
-117.02 43.313 -21
-119.62 44.813 -21
-119.62 44.813 -18
-117.02 43.313 -15
-119.62 44.813 -15
-111.82 40.313 -12
-114.42 41.813 -12
-117.02 43.313 -12
59.648 -58.687 -9
57.05 -57.187 -9
-106.63 37.313 -9
-109.23 38.813 -9
67.442 -63.187 -6
64.844 -61.687 -6
62.246 -60.187 -6
59.648 -58.687 -6
-101.43 34.313 -6
-104.03 35.813 -6
-106.63 37.313 -6
72.638 -66.187 -3
70.04 -64.687 -3
67.442 -63.187 -3
-101.43 34.313 -3
-104.03 35.813 -3
80.433 -70.687 -6.4294e-015
77.835 -69.187 -6.2457e-015
75.237 -67.687 -6.062e-015
-33.883 -4.6865 1.6533e-015
-93.638 29.813 5.8783e-015
-96.237 31.313 6.062e-015
-98.835 32.813 6.2457e-015
-101.43 34.313 6.4294e-015
85.629 -73.687 3
83.031 -72.187 3
80.433 -70.687 3
18.079 -34.687 3
15.481 -33.187 3
12.883 -31.687 3
10.285 -30.187 3
7.6865 -28.687 3
5.0885 -27.187 3
2.4904 -25.687 3
-0.1077 -24.187 3
-2.7058 -22.687 3
-5.3038 -21.187 3
-7.9019 -19.687 3
-10.5 -18.187 3
-13.098 -16.687 3
-15.696 -15.187 3
-18.294 -13.687 3
-20.892 -12.187 3
-23.49 -10.687 3
-26.088 -9.1865 3
-28.687 -7.6865 3
-31.285 -6.1865 3
-33.883 -4.6865 3
-78.05 20.813 3
-80.648 22.313 3
-83.246 23.813 3
-85.844 25.313 3
-88.442 26.813 3
-91.04 28.313 3
-93.638 29.813 3
93.423 -78.187 6
90.825 -76.687 6
88.227 -75.187 6
31.069 -42.187 6
28.471 -40.687 6
25.873 -39.187 6
23.275 -37.687 6
20.677 -36.187 6
18.079 -34.687 6
-33.883 -4.6865 6
-41.677 -0.18653 6
-44.275 1.3135 6
-46.873 2.8135 6
-49.471 4.3135 6
-52.069 5.8135 6
-54.667 7.3135 6
-57.265 8.8135 6
-59.863 10.313 6
-62.462 11.813 6
-65.06 13.313 6
-67.658 14.813 6
-70.256 16.313 6
-72.854 17.813 6
-75.452 19.313 6
-78.05 20.813 6
93.423 -78.187 9
31.069 -42.187 9
10.285 -30.187 9
7.6865 -28.687 9
5.0885 -27.187 9
2.4904 -25.687 9
-0.1077 -24.187 9
-2.7058 -22.687 9
-5.3038 -21.187 9
-7.9019 -19.687 9
-10.5 -18.187 9
-13.098 -16.687 9
-15.696 -15.187 9
-18.294 -13.687 9
-20.892 -12.187 9
-23.49 -10.687 9
-26.088 -9.1865 9
-28.687 -7.6865 9
-31.285 -6.1865 9
-33.883 -4.6865 9
-36.481 -3.1865 9
-39.079 -1.6865 9
-54.667 7.3135 9
-57.265 8.8135 9
-59.863 10.313 9
106.41 -85.687 12
103.82 -84.187 12
101.22 -82.687 12
98.619 -81.187 12
96.021 -79.687 12
93.423 -78.187 12
90.825 -76.687 12
59.648 -58.687 12
57.05 -57.187 12
54.452 -55.687 12
51.854 -54.187 12
49.256 -52.687 12
46.658 -51.187 12
44.06 -49.687 12
41.462 -48.187 12
38.863 -46.687 12
36.265 -45.187 12
33.667 -43.687 12
31.069 -42.187 12
28.471 -40.687 12
25.873 -39.187 12
23.275 -37.687 12
20.677 -36.187 12
18.079 -34.687 12
15.481 -33.187 12
12.883 -31.687 12
10.285 -30.187 12
-33.883 -4.6865 12
-52.069 5.8135 12
-54.667 7.3135 12
-57.265 8.8135 12
-59.863 10.313 12
-62.462 11.813 12
-65.06 13.313 12
-67.658 14.813 12
106.41 -85.687 15
93.423 -78.187 15
90.825 -76.687 15
88.227 -75.187 15
85.629 -73.687 15
83.031 -72.187 15
80.433 -70.687 15
77.835 -69.187 15
75.237 -67.687 15
72.638 -66.187 15
70.04 -64.687 15
67.442 -63.187 15
64.844 -61.687 15
62.246 -60.187 15
59.648 -58.687 15
31.069 -42.187 15
-33.883 -4.6865 15
-52.069 5.8135 15
-54.667 7.3135 15
-57.265 8.8135 15
-59.863 10.313 15
-62.462 11.813 15
-65.06 13.313 15
-67.658 14.813 15
-70.256 16.313 15
-72.854 17.813 15
109.01 -87.187 18
90.825 -76.687 18
31.069 -42.187 18
28.471 -40.687 18
-33.883 -4.6865 18
-62.462 11.813 18
-67.658 14.813 18
-70.256 16.313 18
-72.854 17.813 18
-75.452 19.313 18
-78.05 20.813 18
-80.648 22.313 18
109.01 -87.187 21
88.227 -75.187 21
67.442 -63.187 21
31.069 -42.187 21
28.471 -40.687 21
-33.883 -4.6865 21
-62.462 11.813 21
-67.658 14.813 21
-70.256 16.313 21
-72.854 17.813 21
-78.05 20.813 21
-80.648 22.313 21
109.01 -87.187 24
88.227 -75.187 24
72.638 -66.187 24
70.04 -64.687 24
67.442 -63.187 24
31.069 -42.187 24
28.471 -40.687 24
-15.696 -15.187 24
-18.294 -13.687 24
-20.892 -12.187 24
-23.49 -10.687 24
-26.088 -9.1865 24
-28.687 -7.6865 24
-31.285 -6.1865 24
-33.883 -4.6865 24
-59.863 10.313 24
-62.462 11.813 24
-65.06 13.313 24
-67.658 14.813 24
-72.854 17.813 24
-75.452 19.313 24
-78.05 20.813 24
109.01 -87.187 27
106.41 -85.687 27
90.825 -76.687 27
72.638 -66.187 27
28.471 -40.687 27
25.873 -39.187 27
23.275 -37.687 27
20.677 -36.187 27
18.079 -34.687 27
15.481 -33.187 27
12.883 -31.687 27
10.285 -30.187 27
7.6865 -28.687 27
5.0885 -27.187 27
2.4904 -25.687 27
-0.1077 -24.187 27
-2.7058 -22.687 27
-5.3038 -21.187 27
-7.9019 -19.687 27
-10.5 -18.187 27
-13.098 -16.687 27
-57.265 8.8135 27
-59.863 10.313 27
-62.462 11.813 27
-65.06 13.313 27
-67.658 14.813 27
-70.256 16.313 27
106.41 -85.687 30
103.82 -84.187 30
93.423 -78.187 30
90.825 -76.687 30
75.237 -67.687 30
72.638 -66.187 30
-36.481 -3.1865 30
-54.667 7.3135 30
-57.265 8.8135 30
-59.863 10.313 30
-62.462 11.813 30
-65.06 13.313 30
103.82 -84.187 33
101.22 -82.687 33
98.619 -81.187 33
96.021 -79.687 33
93.423 -78.187 33
75.237 -67.687 33
72.638 -66.187 33
-36.481 -3.1865 33
-44.275 1.3135 33
-46.873 2.8135 33
-49.471 4.3135 33
-52.069 5.8135 33
75.237 -67.687 36
72.638 -66.187 36
5.0885 -27.187 36
2.4904 -25.687 36
-0.1077 -24.187 36
-2.7058 -22.687 36
-5.3038 -21.187 36
-13.098 -16.687 36
-15.696 -15.187 36
-18.294 -13.687 36
-23.49 -10.687 36
-26.088 -9.1865 36
-28.687 -7.6865 36
-31.285 -6.1865 36
-33.883 -4.6865 36
-36.481 -3.1865 36
-39.079 -1.6865 36
-41.677 -0.18653 36
75.237 -67.687 39
72.638 -66.187 39
70.04 -64.687 39
7.6865 -28.687 39
5.0885 -27.187 39
2.4904 -25.687 39
-0.1077 -24.187 39
-2.7058 -22.687 39
-5.3038 -21.187 39
-7.9019 -19.687 39
-10.5 -18.187 39
-13.098 -16.687 39
-15.696 -15.187 39
-18.294 -13.687 39
-20.892 -12.187 39
-23.49 -10.687 39
-26.088 -9.1865 39
-28.687 -7.6865 39
-31.285 -6.1865 39
-36.481 -3.1865 39
75.237 -67.687 42
72.638 -66.187 42
70.04 -64.687 42
67.442 -63.187 42
64.844 -61.687 42
62.246 -60.187 42
59.648 -58.687 42
57.05 -57.187 42
54.452 -55.687 42
51.854 -54.187 42
49.256 -52.687 42
46.658 -51.187 42
44.06 -49.687 42
41.462 -48.187 42
38.863 -46.687 42
36.265 -45.187 42
33.667 -43.687 42
31.069 -42.187 42
28.471 -40.687 42
25.873 -39.187 42
23.275 -37.687 42
20.677 -36.187 42
18.079 -34.687 42
15.481 -33.187 42
12.883 -31.687 42
10.285 -30.187 42
7.6865 -28.687 42
5.0885 -27.187 42
2.4904 -25.687 42
-0.1077 -24.187 42
-2.7058 -22.687 42
-5.3038 -21.187 42
-7.9019 -19.687 42
-10.5 -18.187 42
-13.098 -16.687 42
-15.696 -15.187 42
-18.294 -13.687 42
-23.49 -10.687 42
-31.285 -6.1865 42
70.04 -64.687 45
67.442 -63.187 45
64.844 -61.687 45
62.246 -60.187 45
59.648 -58.687 45
57.05 -57.187 45
54.452 -55.687 45
51.854 -54.187 45
49.256 -52.687 45
46.658 -51.187 45
44.06 -49.687 45
41.462 -48.187 45
-7.9019 -19.687 45
-15.696 -15.187 45
-23.49 -10.687 45
-31.285 -6.1865 45
18.079 -34.687 48
-7.9019 -19.687 48
-15.696 -15.187 48
-23.49 -10.687 48
-26.088 -9.1865 48
-28.687 -7.6865 48
-31.285 -6.1865 48
-33.883 -4.6865 48
-36.481 -3.1865 48
20.677 -36.187 51
18.079 -34.687 51
15.481 -33.187 51
-7.9019 -19.687 51
-10.5 -18.187 51
-15.696 -15.187 51
-18.294 -13.687 51
-20.892 -12.187 51
-10.5 -18.187 54
-13.098 -16.687 54
23.275 -37.687 57
20.677 -36.187 57
18.079 -34.687 57
15.481 -33.187 57
12.883 -31.687 57
10.285 -30.187 57
23.275 -37.687 60
10.285 -30.187 60
23.275 -37.687 63
20.677 -36.187 63
18.079 -34.687 63
15.481 -33.187 63
12.883 -31.687 63
18.079 -34.687 66
18.079 -34.687 75
-84.746 21.215 -30
-87.344 22.715 -30
-89.942 24.215 -30
-92.54 25.715 -30
-92.54 25.715 -27
-95.138 27.215 -27
-97.737 28.715 -27
-100.33 30.215 -27
-102.93 31.715 -27
-105.53 33.215 -27
-105.53 33.215 -24
-108.13 34.715 -24
-110.73 36.215 -24
-113.32 37.715 -21
-115.92 39.215 -21
-118.52 40.715 -21
-121.12 42.215 -21
-121.12 42.215 -18
-123.72 43.715 -18
-118.52 40.715 -15
-121.12 42.215 -15
-123.72 43.715 -15
-113.32 37.715 -12
-115.92 39.215 -12
-118.52 40.715 -12
-121.12 42.215 -12
58.148 -61.285 -9
55.55 -59.785 -9
52.952 -58.285 -9
-108.13 34.715 -9
-110.73 36.215 -9
-113.32 37.715 -9
-115.92 39.215 -9
65.942 -65.785 -6
63.344 -64.285 -6
60.746 -62.785 -6
58.148 -61.285 -6
-102.93 31.715 -6
-105.53 33.215 -6
71.138 -68.785 -3
68.54 -67.285 -3
65.942 -65.785 -3
-102.93 31.715 -3
-105.53 33.215 -3
78.933 -73.285 -6.4294e-015
76.335 -71.785 -6.2457e-015
73.737 -70.285 -6.062e-015
-95.138 27.215 5.8783e-015
-97.737 28.715 6.062e-015
-100.33 30.215 6.2457e-015
-102.93 31.715 6.4294e-015
86.727 -77.785 3
84.129 -76.285 3
81.531 -74.785 3
78.933 -73.285 3
16.579 -37.285 3
13.981 -35.785 3
11.383 -34.285 3
8.7846 -32.785 3
6.1865 -31.285 3
3.5885 -29.785 3
0.99038 -28.285 3
-1.6077 -26.785 3
-4.2058 -25.285 3
-6.8038 -23.785 3
-9.4019 -22.285 3
-12 -20.785 3
-14.598 -19.285 3
-17.196 -17.785 3
-19.794 -16.285 3
-22.392 -14.785 3
-24.99 -13.285 3
-27.588 -11.785 3
-30.187 -10.285 3
-32.785 -8.7846 3
-35.383 -7.2846 3
-79.55 18.215 3
-82.148 19.715 3
-84.746 21.215 3
-87.344 22.715 3
-89.942 24.215 3
-92.54 25.715 3
91.923 -80.785 6
89.325 -79.285 6
86.727 -77.785 6
26.971 -43.285 6
24.373 -41.785 6
21.775 -40.285 6
19.177 -38.785 6
16.579 -37.285 6
-32.785 -8.7846 6
-43.177 -2.7846 6
-45.775 -1.2846 6
-48.373 0.21539 6
-50.971 1.7154 6
-53.569 3.2154 6
-56.167 4.7154 6
-58.765 6.2154 6
-61.363 7.7154 6
-63.962 9.2154 6
-66.56 10.715 6
-69.158 12.215 6
-71.756 13.715 6
-74.354 15.215 6
-76.952 16.715 6
-79.55 18.215 6
91.923 -80.785 9
26.971 -43.285 9
8.7846 -32.785 9
6.1865 -31.285 9
3.5885 -29.785 9
0.99038 -28.285 9
-1.6077 -26.785 9
-4.2058 -25.285 9
-6.8038 -23.785 9
-9.4019 -22.285 9
-12 -20.785 9
-14.598 -19.285 9
-17.196 -17.785 9
-19.794 -16.285 9
-22.392 -14.785 9
-24.99 -13.285 9
-27.588 -11.785 9
-30.187 -10.285 9
-32.785 -8.7846 9
-35.383 -7.2846 9
-37.981 -5.7846 9
-40.579 -4.2846 9
-43.177 -2.7846 9
-56.167 4.7154 9
-58.765 6.2154 9
-61.363 7.7154 9
102.32 -86.785 12
99.717 -85.285 12
97.119 -83.785 12
94.521 -82.285 12
91.923 -80.785 12
89.325 -79.285 12
58.148 -61.285 12
55.55 -59.785 12
52.952 -58.285 12
50.354 -56.785 12
47.756 -55.285 12
45.158 -53.785 12
42.56 -52.285 12
39.962 -50.785 12
37.363 -49.285 12
34.765 -47.785 12
32.167 -46.285 12
29.569 -44.785 12
26.971 -43.285 12
24.373 -41.785 12
21.775 -40.285 12
19.177 -38.785 12
16.579 -37.285 12
13.981 -35.785 12
11.383 -34.285 12
8.7846 -32.785 12
-32.785 -8.7846 12
-35.383 -7.2846 12
-53.569 3.2154 12
-56.167 4.7154 12
-58.765 6.2154 12
-61.363 7.7154 12
-63.962 9.2154 12
-66.56 10.715 12
-69.158 12.215 12
104.91 -88.285 15
91.923 -80.785 15
89.325 -79.285 15
86.727 -77.785 15
84.129 -76.285 15
81.531 -74.785 15
78.933 -73.285 15
76.335 -71.785 15
73.737 -70.285 15
71.138 -68.785 15
68.54 -67.285 15
65.942 -65.785 15
63.344 -64.285 15
60.746 -62.785 15
26.971 -43.285 15
-32.785 -8.7846 15
-35.383 -7.2846 15
-53.569 3.2154 15
-56.167 4.7154 15
-58.765 6.2154 15
-61.363 7.7154 15
-63.962 9.2154 15
-66.56 10.715 15
-69.158 12.215 15
-71.756 13.715 15
-74.354 15.215 15
107.51 -89.785 18
104.91 -88.285 18
89.325 -79.285 18
86.727 -77.785 18
26.971 -43.285 18
-32.785 -8.7846 18
-35.383 -7.2846 18
-63.962 9.2154 18
-69.158 12.215 18
-71.756 13.715 18
-74.354 15.215 18
-76.952 16.715 18
-79.55 18.215 18
107.51 -89.785 21
86.727 -77.785 21
65.942 -65.785 21
63.344 -64.285 21
26.971 -43.285 21
-32.785 -8.7846 21
-35.383 -7.2846 21
-63.962 9.2154 21
-69.158 12.215 21
-71.756 13.715 21
-74.354 15.215 21
-79.55 18.215 21
-82.148 19.715 21
107.51 -89.785 24
89.325 -79.285 24
86.727 -77.785 24
68.54 -67.285 24
65.942 -65.785 24
26.971 -43.285 24
-17.196 -17.785 24
-19.794 -16.285 24
-22.392 -14.785 24
-24.99 -13.285 24
-27.588 -11.785 24
-30.187 -10.285 24
-32.785 -8.7846 24
-35.383 -7.2846 24
-63.962 9.2154 24
-66.56 10.715 24
-69.158 12.215 24
-74.354 15.215 24
-76.952 16.715 24
-79.55 18.215 24
107.51 -89.785 27
104.91 -88.285 27
89.325 -79.285 27
71.138 -68.785 27
26.971 -43.285 27
24.373 -41.785 27
21.775 -40.285 27
19.177 -38.785 27
16.579 -37.285 27
13.981 -35.785 27
11.383 -34.285 27
8.7846 -32.785 27
6.1865 -31.285 27
3.5885 -29.785 27
0.99038 -28.285 27
-1.6077 -26.785 27
-4.2058 -25.285 27
-6.8038 -23.785 27
-9.4019 -22.285 27
-12 -20.785 27
-14.598 -19.285 27
-58.765 6.2154 27
-61.363 7.7154 27
-63.962 9.2154 27
-66.56 10.715 27
-69.158 12.215 27
-71.756 13.715 27
104.91 -88.285 30
91.923 -80.785 30
89.325 -79.285 30
73.737 -70.285 30
71.138 -68.785 30
-35.383 -7.2846 30
-37.981 -5.7846 30
-56.167 4.7154 30
-58.765 6.2154 30
-61.363 7.7154 30
-63.962 9.2154 30
-66.56 10.715 30
102.32 -86.785 33
99.717 -85.285 33
97.119 -83.785 33
94.521 -82.285 33
73.737 -70.285 33
71.138 -68.785 33
-35.383 -7.2846 33
-37.981 -5.7846 33
-40.579 -4.2846 33
-45.775 -1.2846 33
-48.373 0.21539 33
-50.971 1.7154 33
-53.569 3.2154 33
73.737 -70.285 36
71.138 -68.785 36
34.765 -47.785 36
0.99038 -28.285 36
-1.6077 -26.785 36
-4.2058 -25.285 36
-14.598 -19.285 36
-17.196 -17.785 36
-19.794 -16.285 36
-27.588 -11.785 36
-30.187 -10.285 36
-32.785 -8.7846 36
-35.383 -7.2846 36
-37.981 -5.7846 36
-40.579 -4.2846 36
-43.177 -2.7846 36
-48.373 0.21539 36
73.737 -70.285 39
71.138 -68.785 39
68.54 -67.285 39
3.5885 -29.785 39
0.99038 -28.285 39
-1.6077 -26.785 39
-4.2058 -25.285 39
-6.8038 -23.785 39
-9.4019 -22.285 39
-12 -20.785 39
-14.598 -19.285 39
-17.196 -17.785 39
-19.794 -16.285 39
-22.392 -14.785 39
-24.99 -13.285 39
-27.588 -11.785 39
-30.187 -10.285 39
-32.785 -8.7846 39
-35.383 -7.2846 39
-37.981 -5.7846 39
-40.579 -4.2846 39
73.737 -70.285 42
71.138 -68.785 42
68.54 -67.285 42
65.942 -65.785 42
63.344 -64.285 42
60.746 -62.785 42
58.148 -61.285 42
55.55 -59.785 42
52.952 -58.285 42
50.354 -56.785 42
47.756 -55.285 42
45.158 -53.785 42
42.56 -52.285 42
39.962 -50.785 42
37.363 -49.285 42
34.765 -47.785 42
32.167 -46.285 42
29.569 -44.785 42
26.971 -43.285 42
24.373 -41.785 42
21.775 -40.285 42
19.177 -38.785 42
16.579 -37.285 42
13.981 -35.785 42
11.383 -34.285 42
8.7846 -32.785 42
6.1865 -31.285 42
3.5885 -29.785 42
0.99038 -28.285 42
-1.6077 -26.785 42
-4.2058 -25.285 42
-6.8038 -23.785 42
-9.4019 -22.285 42
-12 -20.785 42
-17.196 -17.785 42
-19.794 -16.285 42
-24.99 -13.285 42
-27.588 -11.785 42
-30.187 -10.285 42
-32.785 -8.7846 42
-35.383 -7.2846 42
68.54 -67.285 45
65.942 -65.785 45
63.344 -64.285 45
60.746 -62.785 45
58.148 -61.285 45
55.55 -59.785 45
52.952 -58.285 45
50.354 -56.785 45
47.756 -55.285 45
45.158 -53.785 45
42.56 -52.285 45
39.962 -50.785 45
34.765 -47.785 45
-9.4019 -22.285 45
-17.196 -17.785 45
-24.99 -13.285 45
-27.588 -11.785 45
-30.187 -10.285 45
-32.785 -8.7846 45
-35.383 -7.2846 45
34.765 -47.785 48
-9.4019 -22.285 48
-17.196 -17.785 48
-19.794 -16.285 48
-24.99 -13.285 48
-30.187 -10.285 48
-32.785 -8.7846 48
-35.383 -7.2846 48
19.177 -38.785 51
16.579 -37.285 51
13.981 -35.785 51
-9.4019 -22.285 51
-12 -20.785 51
-14.598 -19.285 51
-17.196 -17.785 51
-19.794 -16.285 51
-22.392 -14.785 51
-9.4019 -22.285 54
-12 -20.785 54
-14.598 -19.285 54
19.177 -38.785 57
16.579 -37.285 57
13.981 -35.785 57
11.383 -34.285 57
21.775 -40.285 60
19.177 -38.785 60
16.579 -37.285 60
13.981 -35.785 60
11.383 -34.285 60
21.775 -40.285 63
19.177 -38.785 63
16.579 -37.285 63
13.981 -35.785 63
11.383 -34.285 63
32.167 -46.285 87
-86.246 18.617 -30
-88.844 20.117 -30
-91.442 21.617 -30
-94.04 23.117 -30
-94.04 23.117 -27
-96.638 24.617 -27
-99.237 26.117 -27
-101.83 27.617 -27
-104.43 29.117 -27
-107.03 30.617 -27
-107.03 30.617 -24
-109.63 32.117 -24
-112.23 33.617 -24
-114.82 35.117 -24
-117.42 36.617 -24
-114.82 35.117 -21
-117.42 36.617 -21
-120.02 38.117 -21
-122.62 39.617 -21
-122.62 39.617 -18
-125.22 41.117 -18
-125.22 41.117 -15
-117.42 36.617 -12
-120.02 38.117 -12
-122.62 39.617 -12
-125.22 41.117 -12
56.648 -63.883 -9
54.05 -62.383 -9
-109.63 32.117 -9
-112.23 33.617 -9
-114.82 35.117 -9
-117.42 36.617 -9
61.844 -66.883 -6
59.246 -65.383 -6
-104.43 29.117 -6
-107.03 30.617 -6
-109.63 32.117 -6
69.638 -71.383 -3
67.04 -69.883 -3
64.442 -68.383 -3
-104.43 29.117 -3
-107.03 30.617 -3
77.433 -75.883 -6.4294e-015
74.835 -74.383 -6.2457e-015
72.237 -72.883 -6.062e-015
-94.04 23.117 5.6946e-015
-96.638 24.617 5.8783e-015
-99.237 26.117 6.062e-015
-101.83 27.617 6.2457e-015
-104.43 29.117 6.4294e-015
85.227 -80.383 3
82.629 -78.883 3
80.031 -77.383 3
77.433 -75.883 3
15.079 -39.883 3
12.481 -38.383 3
9.8827 -36.883 3
7.2846 -35.383 3
4.6865 -33.883 3
2.0885 -32.383 3
-0.50962 -30.883 3
-3.1077 -29.383 3
-5.7058 -27.883 3
-8.3038 -26.383 3
-10.902 -24.883 3
-13.5 -23.383 3
-16.098 -21.883 3
-18.696 -20.383 3
-21.294 -18.883 3
-23.892 -17.383 3
-26.49 -15.883 3
-29.088 -14.383 3
-31.687 -12.883 3
-34.285 -11.383 3
-81.05 15.617 3
-83.648 17.117 3
-86.246 18.617 3
-88.844 20.117 3
-91.442 21.617 3
-94.04 23.117 3
-96.638 24.617 3
90.423 -83.383 6
87.825 -81.883 6
85.227 -80.383 6
25.471 -45.883 6
22.873 -44.383 6
20.275 -42.883 6
17.677 -41.383 6
15.079 -39.883 6
-34.285 -11.383 6
-44.677 -5.3827 6
-47.275 -3.8827 6
-49.873 -2.3827 6
-52.471 -0.88269 6
-55.069 0.61731 6
-57.667 2.1173 6
-60.265 3.6173 6
-62.863 5.1173 6
-65.462 6.6173 6
-68.06 8.1173 6
-70.658 9.6173 6
-73.256 11.117 6
-75.854 12.617 6
-78.452 14.117 6
-81.05 15.617 6
90.423 -83.383 9
25.471 -45.883 9
22.873 -44.383 9
7.2846 -35.383 9
4.6865 -33.883 9
2.0885 -32.383 9
-0.50962 -30.883 9
-3.1077 -29.383 9
-5.7058 -27.883 9
-8.3038 -26.383 9
-10.902 -24.883 9
-13.5 -23.383 9
-16.098 -21.883 9
-18.696 -20.383 9
-21.294 -18.883 9
-23.892 -17.383 9
-26.49 -15.883 9
-29.088 -14.383 9
-31.687 -12.883 9
-34.285 -11.383 9
-36.883 -9.8827 9
-39.481 -8.3827 9
-42.079 -6.8827 9
-44.677 -5.3827 9
-57.667 2.1173 9
-60.265 3.6173 9
-62.863 5.1173 9
100.82 -89.383 12
98.217 -87.883 12
95.619 -86.383 12
93.021 -84.883 12
90.423 -83.383 12
87.825 -81.883 12
56.648 -63.883 12
54.05 -62.383 12
51.452 -60.883 12
48.854 -59.383 12
46.256 -57.883 12
43.658 -56.383 12
41.06 -54.883 12
38.462 -53.383 12
35.863 -51.883 12
33.265 -50.383 12
30.667 -48.883 12
28.069 -47.383 12
25.471 -45.883 12
22.873 -44.383 12
20.275 -42.883 12
17.677 -41.383 12
15.079 -39.883 12
12.481 -38.383 12
9.8827 -36.883 12
7.2846 -35.383 12
-31.687 -12.883 12
-34.285 -11.383 12
-55.069 0.61731 12
-57.667 2.1173 12
-60.265 3.6173 12
-62.863 5.1173 12
-65.462 6.6173 12
-68.06 8.1173 12
103.41 -90.883 15
90.423 -83.383 15
87.825 -81.883 15
85.227 -80.383 15
82.629 -78.883 15
80.031 -77.383 15
77.433 -75.883 15
74.835 -74.383 15
72.237 -72.883 15
69.638 -71.383 15
67.04 -69.883 15
64.442 -68.383 15
61.844 -66.883 15
59.246 -65.383 15
56.648 -63.883 15
25.471 -45.883 15
22.873 -44.383 15
-31.687 -12.883 15
-34.285 -11.383 15
-52.471 -0.88269 15
-55.069 0.61731 15
-57.667 2.1173 15
-60.265 3.6173 15
-62.863 5.1173 15
-65.462 6.6173 15
-68.06 8.1173 15
-70.658 9.6173 15
-73.256 11.117 15
-75.854 12.617 15
106.01 -92.383 18
87.825 -81.883 18
25.471 -45.883 18
22.873 -44.383 18
-31.687 -12.883 18
-34.285 -11.383 18
-62.863 5.1173 18
-65.462 6.6173 18
-70.658 9.6173 18
-73.256 11.117 18
-75.854 12.617 18
-78.452 14.117 18
-81.05 15.617 18
106.01 -92.383 21
85.227 -80.383 21
61.844 -66.883 21
25.471 -45.883 21
22.873 -44.383 21
-34.285 -11.383 21
-65.462 6.6173 21
-70.658 9.6173 21
-73.256 11.117 21
-75.854 12.617 21
-78.452 14.117 21
-81.05 15.617 21
106.01 -92.383 24
87.825 -81.883 24
85.227 -80.383 24
67.04 -69.883 24
64.442 -68.383 24
25.471 -45.883 24
22.873 -44.383 24
-18.696 -20.383 24
-21.294 -18.883 24
-23.892 -17.383 24
-26.49 -15.883 24
-29.088 -14.383 24
-31.687 -12.883 24
-34.285 -11.383 24
-65.462 6.6173 24
-68.06 8.1173 24
-70.658 9.6173 24
-73.256 11.117 24
-75.854 12.617 24
-78.452 14.117 24
106.01 -92.383 27
103.41 -90.883 27
87.825 -81.883 27
69.638 -71.383 27
35.863 -51.883 27
33.265 -50.383 27
25.471 -45.883 27
22.873 -44.383 27
20.275 -42.883 27
17.677 -41.383 27
15.079 -39.883 27
12.481 -38.383 27
9.8827 -36.883 27
7.2846 -35.383 27
4.6865 -33.883 27
2.0885 -32.383 27
-0.50962 -30.883 27
-3.1077 -29.383 27
-5.7058 -27.883 27
-8.3038 -26.383 27
-10.902 -24.883 27
-13.5 -23.383 27
-16.098 -21.883 27
-18.696 -20.383 27
-60.265 3.6173 27
-62.863 5.1173 27
-65.462 6.6173 27
-68.06 8.1173 27
-70.658 9.6173 27
-73.256 11.117 27
103.41 -90.883 30
100.82 -89.383 30
90.423 -83.383 30
87.825 -81.883 30
72.237 -72.883 30
69.638 -71.383 30
35.863 -51.883 30
33.265 -50.383 30
25.471 -45.883 30
22.873 -44.383 30
20.275 -42.883 30
17.677 -41.383 30
15.079 -39.883 30
12.481 -38.383 30
9.8827 -36.883 30
7.2846 -35.383 30
-34.285 -11.383 30
-36.883 -9.8827 30
-39.481 -8.3827 30
-57.667 2.1173 30
-60.265 3.6173 30
-62.863 5.1173 30
-65.462 6.6173 30
-68.06 8.1173 30
-70.658 9.6173 30
-73.256 11.117 30
100.82 -89.383 33
98.217 -87.883 33
95.619 -86.383 33
93.021 -84.883 33
90.423 -83.383 33
72.237 -72.883 33
69.638 -71.383 33
35.863 -51.883 33
33.265 -50.383 33
25.471 -45.883 33
22.873 -44.383 33
20.275 -42.883 33
17.677 -41.383 33
15.079 -39.883 33
12.481 -38.383 33
9.8827 -36.883 33
7.2846 -35.383 33
-34.285 -11.383 33
-36.883 -9.8827 33
-39.481 -8.3827 33
-44.677 -5.3827 33
-47.275 -3.8827 33
-49.873 -2.3827 33
-52.471 -0.88269 33
-55.069 0.61731 33
72.237 -72.883 36
69.638 -71.383 36
67.04 -69.883 36
35.863 -51.883 36
33.265 -50.383 36
25.471 -45.883 36
22.873 -44.383 36
20.275 -42.883 36
17.677 -41.383 36
15.079 -39.883 36
12.481 -38.383 36
9.8827 -36.883 36
7.2846 -35.383 36
-16.098 -21.883 36
-18.696 -20.383 36
-21.294 -18.883 36
-29.088 -14.383 36
-31.687 -12.883 36
-34.285 -11.383 36
-36.883 -9.8827 36
-39.481 -8.3827 36
-42.079 -6.8827 36
-47.275 -3.8827 36
-49.873 -2.3827 36
72.237 -72.883 39
69.638 -71.383 39
67.04 -69.883 39
33.265 -50.383 39
25.471 -45.883 39
22.873 -44.383 39
20.275 -42.883 39
17.677 -41.383 39
15.079 -39.883 39
12.481 -38.383 39
9.8827 -36.883 39
7.2846 -35.383 39
4.6865 -33.883 39
2.0885 -32.383 39
-0.50962 -30.883 39
-3.1077 -29.383 39
-5.7058 -27.883 39
-8.3038 -26.383 39
-10.902 -24.883 39
-13.5 -23.383 39
-16.098 -21.883 39
-18.696 -20.383 39
-21.294 -18.883 39
-23.892 -17.383 39
-26.49 -15.883 39
-29.088 -14.383 39
-34.285 -11.383 39
-36.883 -9.8827 39
-39.481 -8.3827 39
-42.079 -6.8827 39
72.237 -72.883 42
69.638 -71.383 42
67.04 -69.883 42
64.442 -68.383 42
61.844 -66.883 42
59.246 -65.383 42
56.648 -63.883 42
54.05 -62.383 42
51.452 -60.883 42
48.854 -59.383 42
46.256 -57.883 42
43.658 -56.383 42
41.06 -54.883 42
38.462 -53.383 42
35.863 -51.883 42
33.265 -50.383 42
30.667 -48.883 42
28.069 -47.383 42
25.471 -45.883 42
22.873 -44.383 42
20.275 -42.883 42
17.677 -41.383 42
15.079 -39.883 42
12.481 -38.383 42
9.8827 -36.883 42
7.2846 -35.383 42
4.6865 -33.883 42
-10.902 -24.883 42
-13.5 -23.383 42
-16.098 -21.883 42
-18.696 -20.383 42
-21.294 -18.883 42
67.04 -69.883 45
64.442 -68.383 45
61.844 -66.883 45
59.246 -65.383 45
56.648 -63.883 45
54.05 -62.383 45
51.452 -60.883 45
48.854 -59.383 45
46.256 -57.883 45
43.658 -56.383 45
41.06 -54.883 45
38.462 -53.383 45
33.265 -50.383 45
-10.902 -24.883 45
-13.5 -23.383 45
-16.098 -21.883 45
-18.696 -20.383 45
33.265 -50.383 48
-10.902 -24.883 48
-13.5 -23.383 48
-16.098 -21.883 48
-18.696 -20.383 48
-21.294 -18.883 48
33.265 -50.383 51
-10.902 -24.883 51
-13.5 -23.383 51
-16.098 -21.883 51
-18.696 -20.383 51
-21.294 -18.883 51
33.265 -50.383 54
-10.902 -24.883 54
-13.5 -23.383 54
33.265 -50.383 57
33.265 -50.383 60
33.265 -50.383 63
30.667 -48.883 63
33.265 -50.383 66
30.667 -48.883 66
33.265 -50.383 69
30.667 -48.883 69
33.265 -50.383 72
30.667 -48.883 72
33.265 -50.383 75
30.667 -48.883 75
33.265 -50.383 78
30.667 -48.883 78
33.265 -50.383 81
30.667 -48.883 81
33.265 -50.383 84
30.667 -48.883 84
33.265 -50.383 87
30.667 -48.883 87
33.265 -50.383 90
30.667 -48.883 90
30.667 -48.883 93
30.667 -48.883 96
30.667 -48.883 99
30.667 -48.883 102
30.667 -48.883 105
30.667 -48.883 108
30.667 -48.883 111
30.667 -48.883 114
30.667 -48.883 117
30.667 -48.883 120
30.667 -48.883 123
30.667 -48.883 126
28.069 -47.383 126
30.667 -48.883 129
28.069 -47.383 129
30.667 -48.883 132
28.069 -47.383 132
30.667 -48.883 135
28.069 -47.383 135
30.667 -48.883 138
28.069 -47.383 138
28.069 -47.383 141
30.667 -48.883 144
28.069 -47.383 147
28.069 -47.383 150
28.069 -47.383 153
28.069 -47.383 156
28.069 -47.383 159
28.069 -47.383 162
28.069 -47.383 165
28.069 -47.383 168
28.069 -47.383 171
-87.746 16.019 -30
-90.344 17.519 -30
-92.942 19.019 -30
-95.54 20.519 -27
-98.138 22.019 -27
-100.74 23.519 -27
-103.33 25.019 -27
-105.93 26.519 -27
-108.53 28.019 -27
-108.53 28.019 -24
-111.13 29.519 -24
-113.73 31.019 -24
-116.32 32.519 -24
-118.92 34.019 -24
-116.32 32.519 -21
-118.92 34.019 -21
-121.52 35.519 -21
-124.12 37.019 -21
-126.72 38.519 -21
-124.12 37.019 -18
-126.72 38.519 -18
-126.72 38.519 -15
-121.52 35.519 -12
-124.12 37.019 -12
-126.72 38.519 -12
55.148 -66.481 -9
52.55 -64.981 -9
49.952 -63.481 -9
-111.13 29.519 -9
-113.73 31.019 -9
-116.32 32.519 -9
-118.92 34.019 -9
62.942 -70.981 -6
60.344 -69.481 -6
57.746 -67.981 -6
55.148 -66.481 -6
-105.93 26.519 -6
-108.53 28.019 -6
-111.13 29.519 -6
68.138 -73.981 -3
65.54 -72.481 -3
62.942 -70.981 -3
-105.93 26.519 -3
-108.53 28.019 -3
75.933 -78.481 -6.4294e-015
73.335 -76.981 -6.2457e-015
70.737 -75.481 -6.062e-015
-98.138 22.019 5.8783e-015
-100.74 23.519 6.062e-015
-103.33 25.019 6.2457e-015
-105.93 26.519 6.4294e-015
83.727 -82.981 3
81.129 -81.481 3
78.531 -79.981 3
75.933 -78.481 3
13.579 -42.481 3
10.981 -40.981 3
8.3827 -39.481 3
5.7846 -37.981 3
3.1865 -36.481 3
0.58846 -34.981 3
-2.0096 -33.481 3
-4.6077 -31.981 3
-7.2058 -30.481 3
-9.8038 -28.981 3
-12.402 -27.481 3
-15 -25.981 3
-17.598 -24.481 3
-20.196 -22.981 3
-22.794 -21.481 3
-25.392 -19.981 3
-27.99 -18.481 3
-30.588 -16.981 3
-33.187 -15.481 3
-82.55 13.019 3
-85.148 14.519 3
-87.746 16.019 3
-90.344 17.519 3
-92.942 19.019 3
-95.54 20.519 3
-98.138 22.019 3
88.923 -85.981 6
86.325 -84.481 6
83.727 -82.981 6
21.373 -46.981 6
18.775 -45.481 6
16.177 -43.981 6
13.579 -42.481 6
-33.187 -15.481 6
-46.177 -7.9808 6
-48.775 -6.4808 6
-51.373 -4.9808 6
-53.971 -3.4808 6
-56.569 -1.9808 6
-59.167 -0.48076 6
-61.765 1.0192 6
-64.363 2.5192 6
-66.962 4.0192 6
-69.56 5.5192 6
-72.158 7.0192 6
-74.756 8.5192 6
-77.354 10.019 6
-79.952 11.519 6
-82.55 13.019 6
88.923 -85.981 9
21.373 -46.981 9
3.1865 -36.481 9
0.58846 -34.981 9
-2.0096 -33.481 9
-4.6077 -31.981 9
-7.2058 -30.481 9
-9.8038 -28.981 9
-12.402 -27.481 9
-15 -25.981 9
-17.598 -24.481 9
-20.196 -22.981 9
-22.794 -21.481 9
-25.392 -19.981 9
-27.99 -18.481 9
-30.588 -16.981 9
-33.187 -15.481 9
-35.785 -13.981 9
-38.383 -12.481 9
-40.981 -10.981 9
-43.579 -9.4808 9
-46.177 -7.9808 9
-59.167 -0.48076 9
-61.765 1.0192 9
-64.363 2.5192 9
101.91 -93.481 12
99.315 -91.981 12
96.717 -90.481 12
94.119 -88.981 12
91.521 -87.481 12
88.923 -85.981 12
86.325 -84.481 12
55.148 -66.481 12
52.55 -64.981 12
49.952 -63.481 12
47.354 -61.981 12
44.756 -60.481 12
42.158 -58.981 12
39.56 -57.481 12
36.962 -55.981 12
34.363 -54.481 12
31.765 -52.981 12
29.167 -51.481 12
26.569 -49.981 12
23.971 -48.481 12
21.373 -46.981 12
18.775 -45.481 12
16.177 -43.981 12
13.579 -42.481 12
10.981 -40.981 12
8.3827 -39.481 12
5.7846 -37.981 12
-33.187 -15.481 12
-51.373 -4.9808 12
-53.971 -3.4808 12
-56.569 -1.9808 12
-59.167 -0.48076 12
-61.765 1.0192 12
-64.363 2.5192 12
-66.962 4.0192 12
-69.56 5.5192 12
101.91 -93.481 15
86.325 -84.481 15
83.727 -82.981 15
81.129 -81.481 15
78.531 -79.981 15
75.933 -78.481 15
73.335 -76.981 15
70.737 -75.481 15
68.138 -73.981 15
65.54 -72.481 15
62.942 -70.981 15
60.344 -69.481 15
57.746 -67.981 15
55.148 -66.481 15
21.373 -46.981 15
18.775 -45.481 15
-33.187 -15.481 15
-51.373 -4.9808 15
-53.971 -3.4808 15
-56.569 -1.9808 15
-59.167 -0.48076 15
-61.765 1.0192 15
-64.363 2.5192 15
-66.962 4.0192 15
-69.56 5.5192 15
-72.158 7.0192 15
-74.756 8.5192 15
-77.354 10.019 15
104.51 -94.981 18
86.325 -84.481 18
21.373 -46.981 18
18.775 -45.481 18
-33.187 -15.481 18
-51.373 -4.9808 18
-53.971 -3.4808 18
-64.363 2.5192 18
-72.158 7.0192 18
-74.756 8.5192 18
-77.354 10.019 18
-79.952 11.519 18
-82.55 13.019 18
104.51 -94.981 21
83.727 -82.981 21
62.942 -70.981 21
60.344 -69.481 21
21.373 -46.981 21
18.775 -45.481 21
-33.187 -15.481 21
-64.363 2.5192 21
-66.962 4.0192 21
-69.56 5.5192 21
-72.158 7.0192 21
-74.756 8.5192 21
-79.952 11.519 21
-82.55 13.019 21
104.51 -94.981 24
83.727 -82.981 24
65.54 -72.481 24
62.942 -70.981 24
21.373 -46.981 24
18.775 -45.481 24
-20.196 -22.981 24
-22.794 -21.481 24
-25.392 -19.981 24
-27.99 -18.481 24
-30.588 -16.981 24
-33.187 -15.481 24
-64.363 2.5192 24
-74.756 8.5192 24
104.51 -94.981 27
101.91 -93.481 27
86.325 -84.481 27
68.138 -73.981 27
23.971 -48.481 27
21.373 -46.981 27
18.775 -45.481 27
16.177 -43.981 27
13.579 -42.481 27
10.981 -40.981 27
8.3827 -39.481 27
5.7846 -37.981 27
3.1865 -36.481 27
0.58846 -34.981 27
-2.0096 -33.481 27
-4.6077 -31.981 27
-7.2058 -30.481 27
-9.8038 -28.981 27
-12.402 -27.481 27
-15 -25.981 27
-17.598 -24.481 27
-61.765 1.0192 27
-64.363 2.5192 27
-74.756 8.5192 27
101.91 -93.481 30
88.923 -85.981 30
86.325 -84.481 30
70.737 -75.481 30
68.138 -73.981 30
23.971 -48.481 30
5.7846 -37.981 30
3.1865 -36.481 30
0.58846 -34.981 30
-2.0096 -33.481 30
-38.383 -12.481 30
-53.971 -3.4808 30
-56.569 -1.9808 30
-59.167 -0.48076 30
-61.765 1.0192 30
-64.363 2.5192 30
-72.158 7.0192 30
-74.756 8.5192 30
99.315 -91.981 33
96.717 -90.481 33
94.119 -88.981 33
91.521 -87.481 33
88.923 -85.981 33
70.737 -75.481 33
68.138 -73.981 33
65.54 -72.481 33
23.971 -48.481 33
5.7846 -37.981 33
3.1865 -36.481 33
0.58846 -34.981 33
-35.785 -13.981 33
-43.579 -9.4808 33
-46.177 -7.9808 33
-48.775 -6.4808 33
-51.373 -4.9808 33
-53.971 -3.4808 33
-56.569 -1.9808 33
70.737 -75.481 36
68.138 -73.981 36
65.54 -72.481 36
23.971 -48.481 36
3.1865 -36.481 36
0.58846 -34.981 36
-2.0096 -33.481 36
-17.598 -24.481 36
-27.99 -18.481 36
-30.588 -16.981 36
-33.187 -15.481 36
-35.785 -13.981 36
-38.383 -12.481 36
-40.981 -10.981 36
-43.579 -9.4808 36
-46.177 -7.9808 36
-48.775 -6.4808 36
70.737 -75.481 39
68.138 -73.981 39
65.54 -72.481 39
23.971 -48.481 39
8.3827 -39.481 39
5.7846 -37.981 39
3.1865 -36.481 39
0.58846 -34.981 39
-2.0096 -33.481 39
-4.6077 -31.981 39
-7.2058 -30.481 39
-9.8038 -28.981 39
-12.402 -27.481 39
-15 -25.981 39
-17.598 -24.481 39
-20.196 -22.981 39
-22.794 -21.481 39
-25.392 -19.981 39
-27.99 -18.481 39
-35.785 -13.981 39
-38.383 -12.481 39
-40.981 -10.981 39
70.737 -75.481 42
68.138 -73.981 42
65.54 -72.481 42
57.746 -67.981 42
55.148 -66.481 42
52.55 -64.981 42
49.952 -63.481 42
47.354 -61.981 42
44.756 -60.481 42
42.158 -58.981 42
39.56 -57.481 42
36.962 -55.981 42
34.363 -54.481 42
31.765 -52.981 42
29.167 -51.481 42
26.569 -49.981 42
23.971 -48.481 42
21.373 -46.981 42
18.775 -45.481 42
16.177 -43.981 42
13.579 -42.481 42
10.981 -40.981 42
8.3827 -39.481 42
5.7846 -37.981 42
3.1865 -36.481 42
0.58846 -34.981 42
-12.402 -27.481 42
-15 -25.981 42
-17.598 -24.481 42
-20.196 -22.981 42
65.54 -72.481 45
62.942 -70.981 45
60.344 -69.481 45
57.746 -67.981 45
55.148 -66.481 45
52.55 -64.981 45
49.952 -63.481 45
-15 -25.981 45
-17.598 -24.481 45
-20.196 -22.981 45
-71.06 2.9212 -33
-73.658 4.4212 -33
-76.256 5.9212 -33
-78.854 7.4212 -33
-81.452 8.9212 -33
-84.05 10.421 -33
-86.648 11.921 -33
-89.246 13.421 -33
-91.844 14.921 -33
-76.256 5.9212 -30
-78.854 7.4212 -30
-81.452 8.9212 -30
-84.05 10.421 -30
-86.648 11.921 -30
-89.246 13.421 -30
-91.844 14.921 -30
-94.442 16.421 -30
-97.04 17.921 -30
-97.04 17.921 -27
-99.638 19.421 -27
-102.24 20.921 -27
-104.83 22.421 -27
-107.43 23.921 -27
-110.03 25.421 -27
-110.03 25.421 -24
-112.63 26.921 -24
-115.23 28.421 -24
-117.82 29.921 -24
-117.82 29.921 -21
-120.42 31.421 -21
-123.02 32.921 -21
-125.62 34.421 -21
-125.62 34.421 -18
-128.22 35.921 -18
-128.22 35.921 -15
-123.02 32.921 -12
-125.62 34.421 -12
-128.22 35.921 -12
53.648 -69.079 -9
51.05 -67.579 -9
48.452 -66.079 -9
-112.63 26.921 -9
-115.23 28.421 -9
-117.82 29.921 -9
-120.42 31.421 -9
61.442 -73.579 -6
58.844 -72.079 -6
56.246 -70.579 -6
-110.03 25.421 -6
-112.63 26.921 -6
-115.23 28.421 -6
66.638 -76.579 -3
64.04 -75.079 -3
61.442 -73.579 -3
-107.43 23.921 -3
-110.03 25.421 -3
-112.63 26.921 -3
-115.23 28.421 -3
74.433 -81.079 -6.4294e-015
71.835 -79.579 -6.2457e-015
69.237 -78.079 -6.062e-015
-99.638 19.421 5.8783e-015
-102.24 20.921 6.062e-015
-104.83 22.421 6.2457e-015
-107.43 23.921 6.4294e-015
79.629 -84.079 3
77.031 -82.579 3
74.433 -81.079 3
9.4808 -43.579 3
6.8827 -42.079 3
4.2846 -40.579 3
1.6865 -39.079 3
-0.91154 -37.579 3
-3.5096 -36.079 3
-6.1077 -34.579 3
-8.7058 -33.079 3
-11.304 -31.579 3
-13.902 -30.079 3
-16.5 -28.579 3
-19.098 -27.079 3
-21.696 -25.579 3
-24.294 -24.079 3
-26.892 -22.579 3
-29.49 -21.079 3
-32.088 -19.579 3
-84.05 10.421 3
-86.648 11.921 3
-89.246 13.421 3
-91.844 14.921 3
-94.442 16.421 3
-97.04 17.921 3
-99.638 19.421 3
87.423 -88.579 6
84.825 -87.079 6
82.227 -85.579 6
17.275 -48.079 6
14.677 -46.579 6
12.079 -45.079 6
-32.088 -19.579 6
-47.677 -10.579 6
-50.275 -9.0788 6
-52.873 -7.5788 6
-55.471 -6.0788 6
-58.069 -4.5788 6
-60.667 -3.0788 6
-63.265 -1.5788 6
-65.863 -0.078838 6
-68.462 1.4212 6
-71.06 2.9212 6
-73.658 4.4212 6
-76.256 5.9212 6
-78.854 7.4212 6
-81.452 8.9212 6
-84.05 10.421 6
87.423 -88.579 9
17.275 -48.079 9
14.677 -46.579 9
1.6865 -39.079 9
-0.91154 -37.579 9
-3.5096 -36.079 9
-6.1077 -34.579 9
-8.7058 -33.079 9
-11.304 -31.579 9
-13.902 -30.079 9
-16.5 -28.579 9
-19.098 -27.079 9
-21.696 -25.579 9
-24.294 -24.079 9
-26.892 -22.579 9
-29.49 -21.079 9
-32.088 -19.579 9
-34.687 -18.079 9
-37.285 -16.579 9
-39.883 -15.079 9
-42.481 -13.579 9
-45.079 -12.079 9
-47.677 -10.579 9
-58.069 -4.5788 9
-60.667 -3.0788 9
-63.265 -1.5788 9
-65.863 -0.078838 9
100.41 -96.079 12
97.815 -94.579 12
95.217 -93.079 12
92.619 -91.579 12
90.021 -90.079 12
87.423 -88.579 12
84.825 -87.079 12
53.648 -69.079 12
51.05 -67.579 12
48.452 -66.079 12
45.854 -64.579 12
43.256 -63.079 12
40.658 -61.579 12
38.06 -60.079 12
35.462 -58.579 12
32.863 -57.079 12
30.265 -55.579 12
27.667 -54.079 12
25.069 -52.579 12
22.471 -51.079 12
19.873 -49.579 12
17.275 -48.079 12
14.677 -46.579 12
12.079 -45.079 12
9.4808 -43.579 12
6.8827 -42.079 12
4.2846 -40.579 12
-32.088 -19.579 12
-52.873 -7.5788 12
-55.471 -6.0788 12
-58.069 -4.5788 12
-60.667 -3.0788 12
-63.265 -1.5788 12
-65.863 -0.078838 12
-68.462 1.4212 12
100.41 -96.079 15
84.825 -87.079 15
82.227 -85.579 15
79.629 -84.079 15
77.031 -82.579 15
74.433 -81.079 15
71.835 -79.579 15
69.237 -78.079 15
66.638 -76.579 15
64.04 -75.079 15
61.442 -73.579 15
58.844 -72.079 15
56.246 -70.579 15
53.648 -69.079 15
17.275 -48.079 15
-32.088 -19.579 15
-34.687 -18.079 15
-50.275 -9.0788 15
-52.873 -7.5788 15
-58.069 -4.5788 15
-60.667 -3.0788 15
-63.265 -1.5788 15
-65.863 -0.078838 15
-68.462 1.4212 15
-71.06 2.9212 15
-73.658 4.4212 15
-76.256 5.9212 15
103.01 -97.579 18
84.825 -87.079 18
82.227 -85.579 18
17.275 -48.079 18
14.677 -46.579 18
-32.088 -19.579 18
-52.873 -7.5788 18
-55.471 -6.0788 18
-65.863 -0.078838 18
-73.658 4.4212 18
-76.256 5.9212 18
-78.854 7.4212 18
-81.452 8.9212 18
103.01 -97.579 21
82.227 -85.579 21
61.442 -73.579 21
58.844 -72.079 21
17.275 -48.079 21
14.677 -46.579 21
-32.088 -19.579 21
-34.687 -18.079 21
-63.265 -1.5788 21
-65.863 -0.078838 21
-73.658 4.4212 21
-76.256 5.9212 21
-78.854 7.4212 21
-81.452 8.9212 21
-84.05 10.421 21
103.01 -97.579 24
82.227 -85.579 24
64.04 -75.079 24
61.442 -73.579 24
17.275 -48.079 24
14.677 -46.579 24
-21.696 -25.579 24
-24.294 -24.079 24
-26.892 -22.579 24
-29.49 -21.079 24
-32.088 -19.579 24
-63.265 -1.5788 24
-65.863 -0.078838 24
-76.256 5.9212 24
103.01 -97.579 27
100.41 -96.079 27
84.825 -87.079 27
82.227 -85.579 27
66.638 -76.579 27
22.471 -51.079 27
19.873 -49.579 27
17.275 -48.079 27
14.677 -46.579 27
12.079 -45.079 27
9.4808 -43.579 27
6.8827 -42.079 27
4.2846 -40.579 27
1.6865 -39.079 27
-0.91154 -37.579 27
-3.5096 -36.079 27
-6.1077 -34.579 27
-8.7058 -33.079 27
-11.304 -31.579 27
-13.902 -30.079 27
-16.5 -28.579 27
-19.098 -27.079 27
-21.696 -25.579 27
-60.667 -3.0788 27
-63.265 -1.5788 27
-65.863 -0.078838 27
-76.256 5.9212 27
100.41 -96.079 30
97.815 -94.579 30
87.423 -88.579 30
84.825 -87.079 30
69.237 -78.079 30
66.638 -76.579 30
22.471 -51.079 30
-3.5096 -36.079 30
-52.873 -7.5788 30
-55.471 -6.0788 30
-58.069 -4.5788 30
-60.667 -3.0788 30
-63.265 -1.5788 30
-65.863 -0.078838 30
-73.658 4.4212 30
-76.256 5.9212 30
97.815 -94.579 33
95.217 -93.079 33
92.619 -91.579 33
90.021 -90.079 33
87.423 -88.579 33
69.237 -78.079 33
66.638 -76.579 33
64.04 -75.079 33
22.471 -51.079 33
-3.5096 -36.079 33
-42.481 -13.579 33
-45.079 -12.079 33
-47.677 -10.579 33
-50.275 -9.0788 33
-52.873 -7.5788 33
-55.471 -6.0788 33
-58.069 -4.5788 33
-60.667 -3.0788 33
69.237 -78.079 36
66.638 -76.579 36
64.04 -75.079 36
22.471 -51.079 36
-3.5096 -36.079 36
-24.294 -24.079 36
-26.892 -22.579 36
-29.49 -21.079 36
-32.088 -19.579 36
-34.687 -18.079 36
-37.285 -16.579 36
-39.883 -15.079 36
-42.481 -13.579 36
-45.079 -12.079 36
-47.677 -10.579 36
69.237 -78.079 39
66.638 -76.579 39
64.04 -75.079 39
22.471 -51.079 39
12.079 -45.079 39
9.4808 -43.579 39
6.8827 -42.079 39
4.2846 -40.579 39
1.6865 -39.079 39
-0.91154 -37.579 39
-3.5096 -36.079 39
-6.1077 -34.579 39
-8.7058 -33.079 39
-11.304 -31.579 39
-13.902 -30.079 39
-16.5 -28.579 39
-19.098 -27.079 39
-21.696 -25.579 39
-24.294 -24.079 39
-26.892 -22.579 39
-29.49 -21.079 39
-32.088 -19.579 39
69.237 -78.079 42
66.638 -76.579 42
64.04 -75.079 42
48.452 -66.079 42
45.854 -64.579 42
43.256 -63.079 42
40.658 -61.579 42
38.06 -60.079 42
35.462 -58.579 42
32.863 -57.079 42
30.265 -55.579 42
27.667 -54.079 42
25.069 -52.579 42
22.471 -51.079 42
19.873 -49.579 42
17.275 -48.079 42
14.677 -46.579 42
12.079 -45.079 42
9.4808 -43.579 42
6.8827 -42.079 42
4.2846 -40.579 42
1.6865 -39.079 42
-0.91154 -37.579 42
64.04 -75.079 45
61.442 -73.579 45
58.844 -72.079 45
56.246 -70.579 45
53.648 -69.079 45
51.05 -67.579 45
-72.56 0.32309 -33
-75.158 1.8231 -33
-77.756 3.3231 -33
-80.354 4.8231 -33
-82.952 6.3231 -33
-85.55 7.8231 -33
-88.148 9.3231 -33
-90.746 10.823 -33
-93.344 12.323 -33
-75.158 1.8231 -30
-77.756 3.3231 -30
-80.354 4.8231 -30
-82.952 6.3231 -30
-85.55 7.8231 -30
-90.746 10.823 -30
-93.344 12.323 -30
-95.942 13.823 -30
-98.54 15.323 -27
-101.14 16.823 -27
-103.74 18.323 -27
-106.33 19.823 -27
-108.93 21.323 -27
-111.53 22.823 -27
-111.53 22.823 -24
-114.13 24.323 -24
-116.73 25.823 -24
-116.73 25.823 -21
-119.32 27.323 -21
-121.92 28.823 -21
-124.52 30.323 -21
-127.12 31.823 -21
-127.12 31.823 -18
-129.72 33.323 -18
-124.52 30.323 -15
-127.12 31.823 -15
-129.72 33.323 -15
-119.32 27.323 -12
-121.92 28.823 -12
-124.52 30.323 -12
-127.12 31.823 -12
-129.72 33.323 -12
52.148 -71.677 -9
49.55 -70.177 -9
-114.13 24.323 -9
-116.73 25.823 -9
-119.32 27.323 -9
-121.92 28.823 -9
59.942 -76.177 -6
57.344 -74.677 -6
54.746 -73.177 -6
52.148 -71.677 -6
-108.93 21.323 -6
-111.53 22.823 -6
-114.13 24.323 -6
-116.73 25.823 -6
65.138 -79.177 -3
62.54 -77.677 -3
59.942 -76.177 -3
-108.93 21.323 -3
-111.53 22.823 -3
-114.13 24.323 -3
-116.73 25.823 -3
-119.32 27.323 -3
72.933 -83.677 -6.4294e-015
70.335 -82.177 -6.2457e-015
67.737 -80.677 -6.062e-015
-101.14 16.823 5.8783e-015
-103.74 18.323 6.062e-015
-106.33 19.823 6.2457e-015
-108.93 21.323 6.4294e-015
-111.53 22.823 6.6131e-015
-114.13 24.323 6.7968e-015
-116.73 25.823 6.9805e-015
-121.92 28.823 7.3479e-015
80.727 -88.177 3
78.129 -86.677 3
75.531 -85.177 3
72.933 -83.677 3
7.9808 -46.177 3
5.3827 -44.677 3
2.7846 -43.177 3
0.18653 -41.677 3
-2.4115 -40.177 3
-5.0096 -38.677 3
-7.6077 -37.177 3
-10.206 -35.677 3
-12.804 -34.177 3
-15.402 -32.677 3
-18 -31.177 3
-20.598 -29.677 3
-23.196 -28.177 3
-25.794 -26.677 3
-28.392 -25.177 3
-30.99 -23.677 3
-85.55 7.8231 3
-88.148 9.3231 3
-90.746 10.823 3
-93.344 12.323 3
-95.942 13.823 3
-98.54 15.323 3
-101.14 16.823 3
85.923 -91.177 6
83.325 -89.677 6
80.727 -88.177 6
13.177 -49.177 6
10.579 -47.677 6
-28.392 -25.177 6
-30.99 -23.677 6
-49.177 -13.177 6
-51.775 -11.677 6
-54.373 -10.177 6
-56.971 -8.6769 6
-59.569 -7.1769 6
-62.167 -5.6769 6
-64.765 -4.1769 6
-67.363 -2.6769 6
-69.962 -1.1769 6
-72.56 0.32309 6
-75.158 1.8231 6
-77.756 3.3231 6
-80.354 4.8231 6
-82.952 6.3231 6
-85.55 7.8231 6
85.923 -91.177 9
13.177 -49.177 9
10.579 -47.677 9
0.18653 -41.677 9
-2.4115 -40.177 9
-5.0096 -38.677 9
-7.6077 -37.177 9
-10.206 -35.677 9
-12.804 -34.177 9
-15.402 -32.677 9
-18 -31.177 9
-20.598 -29.677 9
-23.196 -28.177 9
-25.794 -26.677 9
-28.392 -25.177 9
-30.99 -23.677 9
-33.588 -22.177 9
-36.187 -20.677 9
-38.785 -19.177 9
-41.383 -17.677 9
-43.981 -16.177 9
-46.579 -14.677 9
-49.177 -13.177 9
-54.373 -10.177 9
-56.971 -8.6769 9
-59.569 -7.1769 9
-62.167 -5.6769 9
-64.765 -4.1769 9
98.913 -98.677 12
96.315 -97.177 12
93.717 -95.677 12
91.119 -94.177 12
88.521 -92.677 12
85.923 -91.177 12
83.325 -89.677 12
49.55 -70.177 12
46.952 -68.677 12
44.354 -67.177 12
41.756 -65.677 12
39.158 -64.177 12
36.56 -62.677 12
33.962 -61.177 12
31.363 -59.677 12
28.765 -58.177 12
26.167 -56.677 12
23.569 -55.177 12
20.971 -53.677 12
18.373 -52.177 12
15.775 -50.677 12
13.177 -49.177 12
10.579 -47.677 12
7.9808 -46.177 12
5.3827 -44.677 12
2.7846 -43.177 12
0.18653 -41.677 12
-28.392 -25.177 12
-30.99 -23.677 12
-51.775 -11.677 12
-54.373 -10.177 12
-56.971 -8.6769 12
-59.569 -7.1769 12
-62.167 -5.6769 12
-64.765 -4.1769 12
-67.363 -2.6769 12
-69.962 -1.1769 12
98.913 -98.677 15
83.325 -89.677 15
80.727 -88.177 15
78.129 -86.677 15
75.531 -85.177 15
72.933 -83.677 15
70.335 -82.177 15
67.737 -80.677 15
65.138 -79.177 15
62.54 -77.677 15
59.942 -76.177 15
57.344 -74.677 15
54.746 -73.177 15
52.148 -71.677 15
13.177 -49.177 15
10.579 -47.677 15
-30.99 -23.677 15
-49.177 -13.177 15
-51.775 -11.677 15
-54.373 -10.177 15
-56.971 -8.6769 15
-59.569 -7.1769 15
-62.167 -5.6769 15
-64.765 -4.1769 15
-67.363 -2.6769 15
-69.962 -1.1769 15
-72.56 0.32309 15
-75.158 1.8231 15
101.51 -100.18 18
83.325 -89.677 18
13.177 -49.177 18
10.579 -47.677 18
-28.392 -25.177 18
-30.99 -23.677 18
-33.588 -22.177 18
-49.177 -13.177 18
-51.775 -11.677 18
-54.373 -10.177 18
-56.971 -8.6769 18
-64.765 -4.1769 18
-67.363 -2.6769 18
-72.56 0.32309 18
-75.158 1.8231 18
-77.756 3.3231 18
-80.354 4.8231 18
101.51 -100.18 21
80.727 -88.177 21
59.942 -76.177 21
57.344 -74.677 21
13.177 -49.177 21
10.579 -47.677 21
-28.392 -25.177 21
-30.99 -23.677 21
-33.588 -22.177 21
-64.765 -4.1769 21
-67.363 -2.6769 21
-69.962 -1.1769 21
-75.158 1.8231 21
-77.756 3.3231 21
-80.354 4.8231 21
-82.952 6.3231 21
101.51 -100.18 24
80.727 -88.177 24
62.54 -77.677 24
59.942 -76.177 24
13.177 -49.177 24
10.579 -47.677 24
-23.196 -28.177 24
-25.794 -26.677 24
-28.392 -25.177 24
-30.99 -23.677 24
-62.167 -5.6769 24
-64.765 -4.1769 24
-67.363 -2.6769 24
-69.962 -1.1769 24
-77.756 3.3231 24
101.51 -100.18 27
83.325 -89.677 27
80.727 -88.177 27
65.138 -79.177 27
