-36.746 104.35 -48
-40.21 106.35 -48
-43.674 108.35 -48
-47.138 110.35 -48
-50.603 112.35 -48
-54.067 114.35 -48
-57.531 116.35 -48
-64.459 120.35 -48
-67.923 122.35 -48
-71.387 124.35 -48
-74.851 126.35 -48
-78.315 128.35 -48
-81.779 130.35 -48
-88.708 134.35 -48
-106.03 144.35 -48
-109.49 146.35 -48
-112.96 148.35 -48
132.99 6.3538 -44
129.53 8.3538 -44
126.07 10.354 -44
122.6 12.354 -44
119.14 14.354 -44
115.67 16.354 -44
108.75 20.354 -44
105.28 22.354 -44
101.82 24.354 -44
94.89 28.354 -44
91.426 30.354 -44
84.497 34.354 -44
81.033 36.354 -44
74.105 40.354 -44
70.641 42.354 -44
67.177 44.354 -44
63.713 46.354 -44
56.785 50.354 -44
53.321 52.354 -44
49.856 54.354 -44
46.392 56.354 -44
42.928 58.354 -44
39.464 60.354 -44
36 62.354 -44
32.536 64.354 -44
29.072 66.354 -44
25.608 68.354 -44
18.679 72.354 -44
15.215 74.354 -44
11.751 76.354 -44
8.2872 78.354 -44
4.8231 80.354 -44
1.359 82.354 -44
-2.1051 84.354 -44
-5.5692 86.354 -44
-9.0333 88.354 -44
-12.497 90.354 -44
-15.962 92.354 -44
-19.426 94.354 -44
-22.89 96.354 -44
-29.818 100.35 -44
-33.282 102.35 -44
-36.746 104.35 -44
-40.21 106.35 -44
-43.674 108.35 -44
-47.138 110.35 -44
-54.067 114.35 -44
-57.531 116.35 -44
-64.459 120.35 -44
-67.923 122.35 -44
-71.387 124.35 -44
-78.315 128.35 -44
-81.779 130.35 -44
-85.244 132.35 -44
-88.708 134.35 -44
-109.49 146.35 -44
-112.96 148.35 -44
-116.42 150.35 -44
136.46 4.3538 -40
132.99 6.3538 -40
129.53 8.3538 -40
119.14 14.354 -40
112.21 18.354 -40
108.75 20.354 -40
105.28 22.354 -40
101.82 24.354 -40
98.354 26.354 -40
91.426 30.354 -40
84.497 34.354 -40
77.569 38.354 -40
74.105 40.354 -40
70.641 42.354 -40
67.177 44.354 -40
63.713 46.354 -40
60.249 48.354 -40
53.321 52.354 -40
49.856 54.354 -40
42.928 58.354 -40
39.464 60.354 -40
36 62.354 -40
32.536 64.354 -40
29.072 66.354 -40
25.608 68.354 -40
18.679 72.354 -40
15.215 74.354 -40
8.2872 78.354 -40
4.8231 80.354 -40
1.359 82.354 -40
-5.5692 86.354 -40
-9.0333 88.354 -40
-12.497 90.354 -40
-19.426 94.354 -40
-22.89 96.354 -40
-29.818 100.35 -40
-33.282 102.35 -40
-43.674 108.35 -40
-47.138 110.35 -40
-54.067 114.35 -40
-57.531 116.35 -40
-64.459 120.35 -40
-67.923 122.35 -40
-71.387 124.35 -40
-78.315 128.35 -40
-81.779 130.35 -40
-85.244 132.35 -40
-88.708 134.35 -40
-102.56 142.35 -40
-106.03 144.35 -40
-109.49 146.35 -40
-112.96 148.35 -40
-116.42 150.35 -40
-119.88 152.35 -40
143.39 0.35383 -36
139.92 2.3538 -36
136.46 4.3538 -36
132.99 6.3538 -36
122.6 12.354 -36
115.67 16.354 -36
112.21 18.354 -36
108.75 20.354 -36
105.28 22.354 -36
101.82 24.354 -36
98.354 26.354 -36
94.89 28.354 -36
87.962 32.354 -36
84.497 34.354 -36
77.569 38.354 -36
74.105 40.354 -36
70.641 42.354 -36
67.177 44.354 -36
63.713 46.354 -36
60.249 48.354 -36
53.321 52.354 -36
49.856 54.354 -36
42.928 58.354 -36
39.464 60.354 -36
29.072 66.354 -36
25.608 68.354 -36
22.144 70.354 -36
18.679 72.354 -36
15.215 74.354 -36
8.2872 78.354 -36
4.8231 80.354 -36
1.359 82.354 -36
-5.5692 86.354 -36
-9.0333 88.354 -36
-12.497 90.354 -36
-19.426 94.354 -36
-22.89 96.354 -36
-29.818 100.35 -36
-33.282 102.35 -36
-36.746 104.35 -36
-40.21 106.35 -36
-43.674 108.35 -36
-47.138 110.35 -36
-54.067 114.35 -36
-57.531 116.35 -36
-64.459 120.35 -36
-67.923 122.35 -36
-71.387 124.35 -36
-74.851 126.35 -36
-78.315 128.35 -36
-81.779 130.35 -36
-88.708 134.35 -36
-99.1 140.35 -36
-102.56 142.35 -36
-106.03 144.35 -36
-109.49 146.35 -36
-112.96 148.35 -36
-116.42 150.35 -36
-119.88 152.35 -36
-123.35 154.35 -36
146.85 -1.6462 -32
143.39 0.35383 -32
139.92 2.3538 -32
122.6 12.354 -32
115.67 16.354 -32
112.21 18.354 -32
108.75 20.354 -32
101.82 24.354 -32
98.354 26.354 -32
94.89 28.354 -32
87.962 32.354 -32
84.497 34.354 -32
81.033 36.354 -32
77.569 38.354 -32
74.105 40.354 -32
67.177 44.354 -32
63.713 46.354 -32
60.249 48.354 -32
53.321 52.354 -32
49.856 54.354 -32
42.928 58.354 -32
39.464 60.354 -32
36 62.354 -32
32.536 64.354 -32
29.072 66.354 -32
25.608 68.354 -32
18.679 72.354 -32
15.215 74.354 -32
11.751 76.354 -32
8.2872 78.354 -32
4.8231 80.354 -32
1.359 82.354 -32
-2.1051 84.354 -32
-5.5692 86.354 -32
-9.0333 88.354 -32
-12.497 90.354 -32
-15.962 92.354 -32
-19.426 94.354 -32
-22.89 96.354 -32
-29.818 100.35 -32
-33.282 102.35 -32
-36.746 104.35 -32
-40.21 106.35 -32
-43.674 108.35 -32
-47.138 110.35 -32
-50.603 112.35 -32
-54.067 114.35 -32
-57.531 116.35 -32
-60.995 118.35 -32
-67.923 122.35 -32
-71.387 124.35 -32
-74.851 126.35 -32
-78.315 128.35 -32
-88.708 134.35 -32
-95.636 138.35 -32
-99.1 140.35 -32
-116.42 150.35 -32
-119.88 152.35 -32
-123.35 154.35 -32
150.32 -3.6462 -28
146.85 -1.6462 -28
143.39 0.35383 -28
139.92 2.3538 -28
136.46 4.3538 -28
132.99 6.3538 -28
122.6 12.354 -28
115.67 16.354 -28
112.21 18.354 -28
108.75 20.354 -28
105.28 22.354 -28
101.82 24.354 -28
98.354 26.354 -28
94.89 28.354 -28
87.962 32.354 -28
84.497 34.354 -28
77.569 38.354 -28
74.105 40.354 -28
70.641 42.354 -28
67.177 44.354 -28
63.713 46.354 -28
60.249 48.354 -28
53.321 52.354 -28
49.856 54.354 -28
42.928 58.354 -28
39.464 60.354 -28
36 62.354 -28
32.536 64.354 -28
29.072 66.354 -28
25.608 68.354 -28
18.679 72.354 -28
11.751 76.354 -28
4.8231 80.354 -28
1.359 82.354 -28
-2.1051 84.354 -28
-5.5692 86.354 -28
-9.0333 88.354 -28
-15.962 92.354 -28
-22.89 96.354 -28
-26.354 98.354 -28
-33.282 102.35 -28
-36.746 104.35 -28
-40.21 106.35 -28
-50.603 112.35 -28
-60.995 118.35 -28
-64.459 120.35 -28
-81.779 130.35 -28
-85.244 132.35 -28
-95.636 138.35 -28
-99.1 140.35 -28
-116.42 150.35 -28
-119.88 152.35 -28
-123.35 154.35 -28
153.78 -5.6462 -24
150.32 -3.6462 -24
146.85 -1.6462 -24
143.39 0.35383 -24
139.92 2.3538 -24
136.46 4.3538 -24
132.99 6.3538 -24
129.53 8.3538 -24
119.14 14.354 -24
112.21 18.354 -24
108.75 20.354 -24
105.28 22.354 -24
101.82 24.354 -24
98.354 26.354 -24
91.426 30.354 -24
84.497 34.354 -24
77.569 38.354 -24
74.105 40.354 -24
70.641 42.354 -24
67.177 44.354 -24
63.713 46.354 -24
56.785 50.354 -24
53.321 52.354 -24
46.392 56.354 -24
36 62.354 -24
32.536 64.354 -24
29.072 66.354 -24
22.144 70.354 -24
18.679 72.354 -24
11.751 76.354 -24
8.2872 78.354 -24
-12.497 90.354 -24
-15.962 92.354 -24
-29.818 100.35 -24
-33.282 102.35 -24
-43.674 108.35 -24
-47.138 110.35 -24
-50.603 112.35 -24
-67.923 122.35 -24
-71.387 124.35 -24
-74.851 126.35 -24
-78.315 128.35 -24
-81.779 130.35 -24
-95.636 138.35 -24
-99.1 140.35 -24
-116.42 150.35 -24
-119.88 152.35 -24
-123.35 154.35 -24
157.24 -7.6462 -20
153.78 -5.6462 -20
150.32 -3.6462 -20
146.85 -1.6462 -20
132.99 6.3538 -20
129.53 8.3538 -20
119.14 14.354 -20
115.67 16.354 -20
108.75 20.354 -20
105.28 22.354 -20
101.82 24.354 -20
91.426 30.354 -20
81.033 36.354 -20
60.249 48.354 -20
56.785 50.354 -20
42.928 58.354 -20
39.464 60.354 -20
29.072 66.354 -20
25.608 68.354 -20
22.144 70.354 -20
4.8231 80.354 -20
1.359 82.354 -20
-2.1051 84.354 -20
-5.5692 86.354 -20
-9.0333 88.354 -20
-33.282 102.35 -20
-36.746 104.35 -20
-40.21 106.35 -20
-43.674 108.35 -20
-95.636 138.35 -20
-99.1 140.35 -20
-102.56 142.35 -20
-116.42 150.35 -20
-119.88 152.35 -20
-123.35 154.35 -20
-133.74 160.35 -20
-137.21 162.35 -20
157.24 -7.6462 -16
153.78 -5.6462 -16
150.32 -3.6462 -16
132.99 6.3538 -16
129.53 8.3538 -16
115.67 16.354 -16
112.21 18.354 -16
98.354 26.354 -16
94.89 28.354 -16
77.569 38.354 -16
74.105 40.354 -16
70.641 42.354 -16
67.177 44.354 -16
63.713 46.354 -16
60.249 48.354 -16
39.464 60.354 -16
36 62.354 -16
32.536 64.354 -16
29.072 66.354 -16
-99.1 140.35 -16
-102.56 142.35 -16
-106.03 144.35 -16
-109.49 146.35 -16
-112.96 148.35 -16
-116.42 150.35 -16
-119.88 152.35 -16
-123.35 154.35 -16
-130.28 158.35 -16
-133.74 160.35 -16
157.24 -7.6462 -12
153.78 -5.6462 -12
150.32 -3.6462 -12
129.53 8.3538 -12
112.21 18.354 -12
108.75 20.354 -12
105.28 22.354 -12
101.82 24.354 -12
98.354 26.354 -12
-102.56 142.35 -12
-106.03 144.35 -12
-109.49 146.35 -12
-112.96 148.35 -12
-116.42 150.35 -12
-119.88 152.35 -12
-126.81 156.35 -12
-130.28 158.35 -12
157.24 -7.6462 -8
153.78 -5.6462 -8
150.32 -3.6462 -8
146.85 -1.6462 -8
132.99 6.3538 -8
129.53 8.3538 -8
-57.531 116.35 -8
-64.459 120.35 -8
-67.923 122.35 -8
-71.387 124.35 -8
-74.851 126.35 -8
-78.315 128.35 -8
-81.779 130.35 -8
-85.244 132.35 -8
-88.708 134.35 -8
-92.172 136.35 -8
-95.636 138.35 -8
-99.1 140.35 -8
-102.56 142.35 -8
-106.03 144.35 -8
-109.49 146.35 -8
-112.96 148.35 -8
-119.88 152.35 -8
-123.35 154.35 -8
-126.81 156.35 -8
157.24 -7.6462 -4
153.78 -5.6462 -4
150.32 -3.6462 -4
146.85 -1.6462 -4
143.39 0.35383 -4
139.92 2.3538 -4
136.46 4.3538 -4
132.99 6.3538 -4
129.53 8.3538 -4
11.751 76.354 -4
8.2872 78.354 -4
4.8231 80.354 -4
1.359 82.354 -4
-2.1051 84.354 -4
-5.5692 86.354 -4
-9.0333 88.354 -4
-12.497 90.354 -4
-15.962 92.354 -4
-19.426 94.354 -4
-22.89 96.354 -4
-26.354 98.354 -4
-29.818 100.35 -4
-33.282 102.35 -4
-36.746 104.35 -4
-40.21 106.35 -4
-43.674 108.35 -4
-47.138 110.35 -4
-50.603 112.35 -4
-54.067 114.35 -4
-57.531 116.35 -4
-60.995 118.35 -4
-64.459 120.35 -4
-67.923 122.35 -4
-71.387 124.35 -4
-74.851 126.35 -4
-78.315 128.35 -4
-81.779 130.35 -4
-85.244 132.35 -4
-88.708 134.35 -4
-92.172 136.35 -4
-95.636 138.35 -4
-99.1 140.35 -4
-102.56 142.35 -4
-106.03 144.35 -4
-109.49 146.35 -4
-112.96 148.35 -4
-116.42 150.35 -4
-119.88 152.35 -4
150.32 -3.6462 -8.0827e-015
146.85 -1.6462 -7.8377e-015
143.39 0.35383 -7.5928e-015
139.92 2.3538 -7.3479e-015
136.46 4.3538 -7.103e-015
81.033 36.354 -3.1841e-015
74.105 40.354 -2.6942e-015
70.641 42.354 -2.4493e-015
67.177 44.354 -2.2044e-015
63.713 46.354 -1.9594e-015
60.249 48.354 -1.7145e-015
56.785 50.354 -1.4696e-015
53.321 52.354 -1.2246e-015
49.856 54.354 -9.7972e-016
46.392 56.354 -7.3479e-016
42.928 58.354 -4.8986e-016
39.464 60.354 -2.4493e-016
36 62.354 0
32.536 64.354 2.4493e-016
29.072 66.354 4.8986e-016
25.608 68.354 7.3479e-016
22.144 70.354 9.7972e-016
18.679 72.354 1.2246e-015
15.215 74.354 1.4696e-015
11.751 76.354 1.7145e-015
8.2872 78.354 1.9594e-015
4.8231 80.354 2.2044e-015
1.359 82.354 2.4493e-015
-2.1051 84.354 2.6942e-015
-5.5692 86.354 2.9392e-015
-9.0333 88.354 3.1841e-015
-12.497 90.354 3.429e-015
-15.962 92.354 3.6739e-015
-19.426 94.354 3.9189e-015
-22.89 96.354 4.1638e-015
-26.354 98.354 4.4087e-015
-29.818 100.35 4.6537e-015
-33.282 102.35 4.8986e-015
-36.746 104.35 5.1435e-015
-40.21 106.35 5.3884e-015
-43.674 108.35 5.6334e-015
-47.138 110.35 5.8783e-015
-50.603 112.35 6.1232e-015
-54.067 114.35 6.3682e-015
-88.708 134.35 8.8175e-015
-92.172 136.35 9.0624e-015
-95.636 138.35 9.3073e-015
-99.1 140.35 9.5522e-015
-102.56 142.35 9.7972e-015
-106.03 144.35 1.0042e-014
143.39 0.35383 4
139.92 2.3538 4
136.46 4.3538 4
132.99 6.3538 4
129.53 8.3538 4
126.07 10.354 4
122.6 12.354 4
119.14 14.354 4
115.67 16.354 4
112.21 18.354 4
108.75 20.354 4
105.28 22.354 4
101.82 24.354 4
98.354 26.354 4
94.89 28.354 4
91.426 30.354 4
87.962 32.354 4
84.497 34.354 4
81.033 36.354 4
77.569 38.354 4
74.105 40.354 4
70.641 42.354 4
67.177 44.354 4
63.713 46.354 4
60.249 48.354 4
56.785 50.354 4
53.321 52.354 4
49.856 54.354 4
46.392 56.354 4
42.928 58.354 4
39.464 60.354 4
36 62.354 4
32.536 64.354 4
29.072 66.354 4
25.608 68.354 4
22.144 70.354 4
18.679 72.354 4
-67.923 122.35 4
-71.387 124.35 4
-74.851 126.35 4
-78.315 128.35 4
-81.779 130.35 4
-85.244 132.35 4
-88.708 134.35 4
188.42 -25.646 8
132.99 6.3538 8
129.53 8.3538 8
126.07 10.354 8
122.6 12.354 8
119.14 14.354 8
115.67 16.354 8
112.21 18.354 8
108.75 20.354 8
105.28 22.354 8
101.82 24.354 8
94.89 28.354 8
91.426 30.354 8
87.962 32.354 8
84.497 34.354 8
-29.818 100.35 8
-33.282 102.35 8
-36.746 104.35 8
-40.21 106.35 8
-43.674 108.35 8
-47.138 110.35 8
-50.603 112.35 8
-54.067 114.35 8
-57.531 116.35 8
-60.995 118.35 8
-64.459 120.35 8
-71.387 124.35 8
191.88 -27.646 12
56.785 50.354 12
53.321 52.354 12
49.856 54.354 12
46.392 56.354 12
42.928 58.354 12
39.464 60.354 12
36 62.354 12
32.536 64.354 12
29.072 66.354 12
25.608 68.354 12
22.144 70.354 12
18.679 72.354 12
15.215 74.354 12
11.751 76.354 12
8.2872 78.354 12
4.8231 80.354 12
1.359 82.354 12
-2.1051 84.354 12
-5.5692 86.354 12
-9.0333 88.354 12
-12.497 90.354 12
-15.962 92.354 12
-19.426 94.354 12
-22.89 96.354 12
-26.354 98.354 12
-29.818 100.35 12
191.88 -27.646 16
105.28 22.354 16
101.82 24.354 16
98.354 26.354 16
94.89 28.354 16
91.426 30.354 16
87.962 32.354 16
84.497 34.354 16
81.033 36.354 16
77.569 38.354 16
74.105 40.354 16
70.641 42.354 16
67.177 44.354 16
63.713 46.354 16
60.249 48.354 16
56.785 50.354 16
53.321 52.354 16
49.856 54.354 16
46.392 56.354 16
42.928 58.354 16
39.464 60.354 16
36 62.354 16
32.536 64.354 16
29.072 66.354 16
25.608 68.354 16
22.144 70.354 16
15.215 74.354 16
4.8231 80.354 16
1.359 82.354 16
-2.1051 84.354 16
188.42 -25.646 20
171.1 -15.646 20
167.64 -13.646 20
164.17 -11.646 20
160.71 -9.6462 20
157.24 -7.6462 20
153.78 -5.6462 20
150.32 -3.6462 20
146.85 -1.6462 20
143.39 0.35383 20
139.92 2.3538 20
136.46 4.3538 20
132.99 6.3538 20
129.53 8.3538 20
126.07 10.354 20
122.6 12.354 20
119.14 14.354 20
115.67 16.354 20
112.21 18.354 20
108.75 20.354 20
105.28 22.354 20
101.82 24.354 20
98.354 26.354 20
94.89 28.354 20
91.426 30.354 20
87.962 32.354 20
84.497 34.354 20
81.033 36.354 20
74.105 40.354 20
70.641 42.354 20
67.177 44.354 20
63.713 46.354 20
60.249 48.354 20
56.785 50.354 20
53.321 52.354 20
49.856 54.354 20
29.072 66.354 20
25.608 68.354 20
22.144 70.354 20
18.679 72.354 20
15.215 74.354 20
11.751 76.354 20
8.2872 78.354 20
4.8231 80.354 20
1.359 82.354 20
-2.1051 84.354 20
-5.5692 86.354 20
-9.0333 88.354 20
-12.497 90.354 20
-15.962 92.354 20
188.42 -25.646 24
184.96 -23.646 24
181.49 -21.646 24
178.03 -19.646 24
174.56 -17.646 24
171.1 -15.646 24
167.64 -13.646 24
164.17 -11.646 24
160.71 -9.6462 24
157.24 -7.6462 24
153.78 -5.6462 24
150.32 -3.6462 24
146.85 -1.6462 24
143.39 0.35383 24
139.92 2.3538 24
136.46 4.3538 24
132.99 6.3538 24
129.53 8.3538 24
126.07 10.354 24
122.6 12.354 24
91.426 30.354 24
87.962 32.354 24
84.497 34.354 24
81.033 36.354 24
77.569 38.354 24
74.105 40.354 24
67.177 44.354 24
63.713 46.354 24
60.249 48.354 24
56.785 50.354 24
53.321 52.354 24
29.072 66.354 24
25.608 68.354 24
11.751 76.354 24
8.2872 78.354 24
4.8231 80.354 24
1.359 82.354 24
-2.1051 84.354 24
-5.5692 86.354 24
-9.0333 88.354 24
-12.497 90.354 24
-15.962 92.354 24
-19.426 94.354 24
-22.89 96.354 24
-26.354 98.354 24
184.96 -23.646 28
91.426 30.354 28
87.962 32.354 28
84.497 34.354 28
81.033 36.354 28
77.569 38.354 28
74.105 40.354 28
67.177 44.354 28
63.713 46.354 28
60.249 48.354 28
56.785 50.354 28
53.321 52.354 28
49.856 54.354 28
46.392 56.354 28
42.928 58.354 28
39.464 60.354 28
36 62.354 28
32.536 64.354 28
29.072 66.354 28
25.608 68.354 28
22.144 70.354 28
11.751 76.354 28
8.2872 78.354 28
4.8231 80.354 28
1.359 82.354 28
-9.0333 88.354 28
-12.497 90.354 28
-15.962 92.354 28
-19.426 94.354 28
-22.89 96.354 28
-26.354 98.354 28
91.426 30.354 32
87.962 32.354 32
84.497 34.354 32
81.033 36.354 32
77.569 38.354 32
74.105 40.354 32
67.177 44.354 32
63.713 46.354 32
60.249 48.354 32
56.785 50.354 32
53.321 52.354 32
49.856 54.354 32
46.392 56.354 32
22.144 70.354 32
18.679 72.354 32
11.751 76.354 32
8.2872 78.354 32
4.8231 80.354 32
1.359 82.354 32
-2.1051 84.354 32
-5.5692 86.354 32
-9.0333 88.354 32
-19.426 94.354 32
-22.89 96.354 32
-26.354 98.354 32
91.426 30.354 36
87.962 32.354 36
84.497 34.354 36
81.033 36.354 36
77.569 38.354 36
74.105 40.354 36
67.177 44.354 36
63.713 46.354 36
60.249 48.354 36
56.785 50.354 36
53.321 52.354 36
49.856 54.354 36
46.392 56.354 36
42.928 58.354 36
39.464 60.354 36
36 62.354 36
22.144 70.354 36
18.679 72.354 36
15.215 74.354 36
11.751 76.354 36
8.2872 78.354 36
4.8231 80.354 36
1.359 82.354 36
-5.5692 86.354 36
-9.0333 88.354 36
-12.497 90.354 36
-15.962 92.354 36
-19.426 94.354 36
87.962 32.354 40
84.497 34.354 40
81.033 36.354 40
77.569 38.354 40
74.105 40.354 40
63.713 46.354 40
60.249 48.354 40
56.785 50.354 40
53.321 52.354 40
49.856 54.354 40
46.392 56.354 40
42.928 58.354 40
36 62.354 40
32.536 64.354 40
29.072 66.354 40
25.608 68.354 40
22.144 70.354 40
15.215 74.354 40
11.751 76.354 40
8.2872 78.354 40
4.8231 80.354 40
1.359 82.354 40
-2.1051 84.354 40
-5.5692 86.354 40
91.426 30.354 44
87.962 32.354 44
84.497 34.354 44
81.033 36.354 44
77.569 38.354 44
74.105 40.354 44
63.713 46.354 44
60.249 48.354 44
56.785 50.354 44
53.321 52.354 44
49.856 54.354 44
46.392 56.354 44
42.928 58.354 44
39.464 60.354 44
36 62.354 44
32.536 64.354 44
29.072 66.354 44
25.608 68.354 44
22.144 70.354 44
18.679 72.354 44
15.215 74.354 44
11.751 76.354 44
8.2872 78.354 44
4.8231 80.354 44
91.426 30.354 48
87.962 32.354 48
84.497 34.354 48
81.033 36.354 48
77.569 38.354 48
74.105 40.354 48
70.641 42.354 48
67.177 44.354 48
63.713 46.354 48
60.249 48.354 48
56.785 50.354 48
46.392 56.354 48
42.928 58.354 48
36 62.354 48
32.536 64.354 48
29.072 66.354 48
25.608 68.354 48
22.144 70.354 48
91.426 30.354 52
87.962 32.354 52
84.497 34.354 52
81.033 36.354 52
77.569 38.354 52
46.392 56.354 52
42.928 58.354 52
36 62.354 52
32.536 64.354 52
29.072 66.354 52
25.608 68.354 52
46.392 56.354 56
42.928 58.354 56
39.464 60.354 56
36 62.354 56
-28.354 94.89 -64
-31.818 96.89 -64
-35.282 98.89 -64
-38.746 100.89 -64
-42.21 102.89 -64
-45.674 104.89 -64
-49.138 106.89 -64
-52.603 108.89 -64
-56.067 110.89 -64
-59.531 112.89 -64
-62.995 114.89 -64
-66.459 116.89 -64
-69.923 118.89 -64
-73.387 120.89 -64
-76.851 122.89 -64
-80.315 124.89 -64
-83.779 126.89 -64
-87.244 128.89 -64
44.392 52.89 -60
37.464 56.89 -60
34 58.89 -60
30.536 60.89 -60
27.072 62.89 -60
23.608 64.89 -60
20.144 66.89 -60
16.679 68.89 -60
13.215 70.89 -60
9.7513 72.89 -60
6.2872 74.89 -60
2.8231 76.89 -60
-0.64102 78.89 -60
-4.1051 80.89 -60
-7.5692 82.89 -60
-11.033 84.89 -60
-14.497 86.89 -60
-17.962 88.89 -60
-21.426 90.89 -60
-24.89 92.89 -60
-28.354 94.89 -60
-31.818 96.89 -60
-35.282 98.89 -60
-38.746 100.89 -60
-42.21 102.89 -60
-45.674 104.89 -60
-49.138 106.89 -60
-52.603 108.89 -60
-56.067 110.89 -60
-59.531 112.89 -60
-62.995 114.89 -60
-66.459 116.89 -60
-69.923 118.89 -60
-73.387 120.89 -60
-76.851 122.89 -60
-80.315 124.89 -60
-83.779 126.89 -60
-87.244 128.89 -60
-90.708 130.89 -60
-94.172 132.89 -60
-97.636 134.89 -60
110.21 14.89 -56
106.75 16.89 -56
103.28 18.89 -56
99.818 20.89 -56
96.354 22.89 -56
92.89 24.89 -56
89.426 26.89 -56
85.962 28.89 -56
82.497 30.89 -56
79.033 32.89 -56
75.569 34.89 -56
72.105 36.89 -56
68.641 38.89 -56
65.177 40.89 -56
61.713 42.89 -56
58.249 44.89 -56
54.785 46.89 -56
51.321 48.89 -56
47.856 50.89 -56
44.392 52.89 -56
40.928 54.89 -56
37.464 56.89 -56
34 58.89 -56
30.536 60.89 -56
27.072 62.89 -56
23.608 64.89 -56
20.144 66.89 -56
16.679 68.89 -56
13.215 70.89 -56
9.7513 72.89 -56
6.2872 74.89 -56
2.8231 76.89 -56
-0.64102 78.89 -56
-4.1051 80.89 -56
-7.5692 82.89 -56
-11.033 84.89 -56
-14.497 86.89 -56
-17.962 88.89 -56
-28.354 94.89 -56
-31.818 96.89 -56
-35.282 98.89 -56
-38.746 100.89 -56
-42.21 102.89 -56
-45.674 104.89 -56
-49.138 106.89 -56
-62.995 114.89 -56
-66.459 116.89 -56
-69.923 118.89 -56
-73.387 120.89 -56
-76.851 122.89 -56
-80.315 124.89 -56
-83.779 126.89 -56
-87.244 128.89 -56
-90.708 130.89 -56
-94.172 132.89 -56
-97.636 134.89 -56
-101.1 136.89 -56
-104.56 138.89 -56
120.6 8.8897 -52
117.14 10.89 -52
113.67 12.89 -52
110.21 14.89 -52
106.75 16.89 -52
103.28 18.89 -52
99.818 20.89 -52
96.354 22.89 -52
92.89 24.89 -52
89.426 26.89 -52
85.962 28.89 -52
82.497 30.89 -52
79.033 32.89 -52
75.569 34.89 -52
72.105 36.89 -52
68.641 38.89 -52
65.177 40.89 -52
61.713 42.89 -52
58.249 44.89 -52
54.785 46.89 -52
51.321 48.89 -52
40.928 54.89 -52
37.464 56.89 -52
34 58.89 -52
30.536 60.89 -52
27.072 62.89 -52
23.608 64.89 -52
6.2872 74.89 -52
2.8231 76.89 -52
-0.64102 78.89 -52
-4.1051 80.89 -52
-7.5692 82.89 -52
-11.033 84.89 -52
-14.497 86.89 -52
-17.962 88.89 -52
-24.89 92.89 -52
-28.354 94.89 -52
-31.818 96.89 -52
-35.282 98.89 -52
-38.746 100.89 -52
-42.21 102.89 -52
-45.674 104.89 -52
-49.138 106.89 -52
-52.603 108.89 -52
-59.531 112.89 -52
-62.995 114.89 -52
-66.459 116.89 -52
-69.923 118.89 -52
-73.387 120.89 -52
-76.851 122.89 -52
-80.315 124.89 -52
-83.779 126.89 -52
-87.244 128.89 -52
-90.708 130.89 -52
-101.1 136.89 -52
-104.56 138.89 -52
-108.03 140.89 -52
-111.49 142.89 -52
127.53 4.8897 -48
124.07 6.8897 -48
120.6 8.8897 -48
117.14 10.89 -48
113.67 12.89 -48
110.21 14.89 -48
106.75 16.89 -48
103.28 18.89 -48
99.818 20.89 -48
96.354 22.89 -48
92.89 24.89 -48
79.033 32.89 -48
75.569 34.89 -48
72.105 36.89 -48
68.641 38.89 -48
65.177 40.89 -48
61.713 42.89 -48
58.249 44.89 -48
54.785 46.89 -48
44.392 52.89 -48
40.928 54.89 -48
37.464 56.89 -48
34 58.89 -48
30.536 60.89 -48
27.072 62.89 -48
23.608 64.89 -48
20.144 66.89 -48
16.679 68.89 -48
9.7513 72.89 -48
6.2872 74.89 -48
2.8231 76.89 -48
-0.64102 78.89 -48
-4.1051 80.89 -48
-7.5692 82.89 -48
-11.033 84.89 -48
-14.497 86.89 -48
-17.962 88.89 -48
-24.89 92.89 -48
-28.354 94.89 -48
-31.818 96.89 -48
-35.282 98.89 -48
-38.746 100.89 -48
-42.21 102.89 -48
-45.674 104.89 -48
-49.138 106.89 -48
-52.603 108.89 -48
-56.067 110.89 -48
-59.531 112.89 -48
-62.995 114.89 -48
-66.459 116.89 -48
-69.923 118.89 -48
-73.387 120.89 -48
-76.851 122.89 -48
-80.315 124.89 -48
-83.779 126.89 -48
-87.244 128.89 -48
-90.708 130.89 -48
-104.56 138.89 -48
-108.03 140.89 -48
-111.49 142.89 -48
-114.96 144.89 -48
130.99 2.8897 -44
127.53 4.8897 -44
124.07 6.8897 -44
120.6 8.8897 -44
117.14 10.89 -44
113.67 12.89 -44
110.21 14.89 -44
106.75 16.89 -44
103.28 18.89 -44
99.818 20.89 -44
96.354 22.89 -44
92.89 24.89 -44
89.426 26.89 -44
82.497 30.89 -44
79.033 32.89 -44
75.569 34.89 -44
72.105 36.89 -44
68.641 38.89 -44
65.177 40.89 -44
61.713 42.89 -44
58.249 44.89 -44
54.785 46.89 -44
47.856 50.89 -44
44.392 52.89 -44
40.928 54.89 -44
37.464 56.89 -44
34 58.89 -44
30.536 60.89 -44
27.072 62.89 -44
23.608 64.89 -44
20.144 66.89 -44
16.679 68.89 -44
13.215 70.89 -44
9.7513 72.89 -44
6.2872 74.89 -44
2.8231 76.89 -44
-0.64102 78.89 -44
-4.1051 80.89 -44
-7.5692 82.89 -44
-11.033 84.89 -44
-14.497 86.89 -44
-17.962 88.89 -44
-21.426 90.89 -44
-24.89 92.89 -44
-28.354 94.89 -44
-31.818 96.89 -44
-35.282 98.89 -44
-38.746 100.89 -44
-42.21 102.89 -44
-45.674 104.89 -44
-49.138 106.89 -44
-52.603 108.89 -44
-56.067 110.89 -44
-59.531 112.89 -44
-62.995 114.89 -44
-66.459 116.89 -44
-69.923 118.89 -44
-73.387 120.89 -44
-76.851 122.89 -44
-80.315 124.89 -44
-83.779 126.89 -44
-87.244 128.89 -44
-90.708 130.89 -44
-111.49 142.89 -44
-114.96 144.89 -44
-118.42 146.89 -44
137.92 -1.1103 -40
134.46 0.88973 -40
130.99 2.8897 -40
127.53 4.8897 -40
117.14 10.89 -40
113.67 12.89 -40
110.21 14.89 -40
106.75 16.89 -40
103.28 18.89 -40
99.818 20.89 -40
96.354 22.89 -40
92.89 24.89 -40
89.426 26.89 -40
82.497 30.89 -40
79.033 32.89 -40
75.569 34.89 -40
72.105 36.89 -40
68.641 38.89 -40
65.177 40.89 -40
61.713 42.89 -40
58.249 44.89 -40
54.785 46.89 -40
51.321 48.89 -40
47.856 50.89 -40
44.392 52.89 -40
40.928 54.89 -40
37.464 56.89 -40
34 58.89 -40
30.536 60.89 -40
27.072 62.89 -40
23.608 64.89 -40
20.144 66.89 -40
16.679 68.89 -40
13.215 70.89 -40
9.7513 72.89 -40
6.2872 74.89 -40
2.8231 76.89 -40
-0.64102 78.89 -40
-7.5692 82.89 -40
-11.033 84.89 -40
-14.497 86.89 -40
-17.962 88.89 -40
-21.426 90.89 -40
-24.89 92.89 -40
-28.354 94.89 -40
-31.818 96.89 -40
-35.282 98.89 -40
-42.21 102.89 -40
-45.674 104.89 -40
-49.138 106.89 -40
-52.603 108.89 -40
-56.067 110.89 -40
-59.531 112.89 -40
-62.995 114.89 -40
-66.459 116.89 -40
-69.923 118.89 -40
-73.387 120.89 -40
-76.851 122.89 -40
-80.315 124.89 -40
-83.779 126.89 -40
-87.244 128.89 -40
-90.708 130.89 -40
-104.56 138.89 -40
-108.03 140.89 -40
-111.49 142.89 -40
-114.96 144.89 -40
-118.42 146.89 -40
-121.88 148.89 -40
141.39 -3.1103 -36
137.92 -1.1103 -36
134.46 0.88973 -36
120.6 8.8897 -36
117.14 10.89 -36
113.67 12.89 -36
110.21 14.89 -36
106.75 16.89 -36
103.28 18.89 -36
99.818 20.89 -36
96.354 22.89 -36
92.89 24.89 -36
89.426 26.89 -36
85.962 28.89 -36
82.497 30.89 -36
79.033 32.89 -36
75.569 34.89 -36
72.105 36.89 -36
68.641 38.89 -36
65.177 40.89 -36
61.713 42.89 -36
58.249 44.89 -36
54.785 46.89 -36
51.321 48.89 -36
47.856 50.89 -36
44.392 52.89 -36
40.928 54.89 -36
37.464 56.89 -36
34 58.89 -36
27.072 62.89 -36
23.608 64.89 -36
20.144 66.89 -36
16.679 68.89 -36
13.215 70.89 -36
9.7513 72.89 -36
6.2872 74.89 -36
2.8231 76.89 -36
-0.64102 78.89 -36
-7.5692 82.89 -36
-11.033 84.89 -36
-14.497 86.89 -36
-17.962 88.89 -36
-21.426 90.89 -36
-24.89 92.89 -36
-28.354 94.89 -36
-31.818 96.89 -36
-35.282 98.89 -36
-38.746 100.89 -36
-42.21 102.89 -36
-45.674 104.89 -36
-49.138 106.89 -36
-52.603 108.89 -36
-56.067 110.89 -36
-59.531 112.89 -36
-62.995 114.89 -36
-66.459 116.89 -36
-69.923 118.89 -36
-73.387 120.89 -36
-76.851 122.89 -36
-80.315 124.89 -36
-83.779 126.89 -36
-87.244 128.89 -36
-90.708 130.89 -36
-101.1 136.89 -36
-104.56 138.89 -36
-108.03 140.89 -36
-111.49 142.89 -36
-114.96 144.89 -36
-118.42 146.89 -36
-121.88 148.89 -36
144.85 -5.1103 -32
141.39 -3.1103 -32
137.92 -1.1103 -32
120.6 8.8897 -32
117.14 10.89 -32
113.67 12.89 -32
110.21 14.89 -32
106.75 16.89 -32
99.818 20.89 -32
96.354 22.89 -32
92.89 24.89 -32
89.426 26.89 -32
85.962 28.89 -32
82.497 30.89 -32
79.033 32.89 -32
75.569 34.89 -32
72.105 36.89 -32
65.177 40.89 -32
61.713 42.89 -32
58.249 44.89 -32
54.785 46.89 -32
51.321 48.89 -32
47.856 50.89 -32
44.392 52.89 -32
40.928 54.89 -32
37.464 56.89 -32
34 58.89 -32
30.536 60.89 -32
27.072 62.89 -32
23.608 64.89 -32
20.144 66.89 -32
16.679 68.89 -32
13.215 70.89 -32
9.7513 72.89 -32
6.2872 74.89 -32
2.8231 76.89 -32
-0.64102 78.89 -32
-4.1051 80.89 -32
-7.5692 82.89 -32
-11.033 84.89 -32
-14.497 86.89 -32
-17.962 88.89 -32
-21.426 90.89 -32
-24.89 92.89 -32
-28.354 94.89 -32
-31.818 96.89 -32
-35.282 98.89 -32
-38.746 100.89 -32
-42.21 102.89 -32
-45.674 104.89 -32
-49.138 106.89 -32
-52.603 108.89 -32
-56.067 110.89 -32
-62.995 114.89 -32
-66.459 116.89 -32
-69.923 118.89 -32
-73.387 120.89 -32
-76.851 122.89 -32
-80.315 124.89 -32
-83.779 126.89 -32
-87.244 128.89 -32
-90.708 130.89 -32
-97.636 134.89 -32
-101.1 136.89 -32
-104.56 138.89 -32
-114.96 144.89 -32
-118.42 146.89 -32
-121.88 148.89 -32
-125.35 150.89 -32
148.32 -7.1103 -28
144.85 -5.1103 -28
141.39 -3.1103 -28
137.92 -1.1103 -28
134.46 0.88973 -28
120.6 8.8897 -28
117.14 10.89 -28
113.67 12.89 -28
110.21 14.89 -28
106.75 16.89 -28
103.28 18.89 -28
99.818 20.89 -28
96.354 22.89 -28
92.89 24.89 -28
89.426 26.89 -28
85.962 28.89 -28
82.497 30.89 -28
79.033 32.89 -28
75.569 34.89 -28
72.105 36.89 -28
68.641 38.89 -28
65.177 40.89 -28
61.713 42.89 -28
58.249 44.89 -28
54.785 46.89 -28
51.321 48.89 -28
47.856 50.89 -28
44.392 52.89 -28
40.928 54.89 -28
37.464 56.89 -28
34 58.89 -28
30.536 60.89 -28
27.072 62.89 -28
23.608 64.89 -28
20.144 66.89 -28
16.679 68.89 -28
9.7513 72.89 -28
6.2872 74.89 -28
2.8231 76.89 -28
-0.64102 78.89 -28
-4.1051 80.89 -28
-7.5692 82.89 -28
-11.033 84.89 -28
-14.497 86.89 -28
-17.962 88.89 -28
-24.89 92.89 -28
-28.354 94.89 -28
-31.818 96.89 -28
-35.282 98.89 -28
-38.746 100.89 -28
-42.21 102.89 -28
-45.674 104.89 -28
-49.138 106.89 -28
-52.603 108.89 -28
-62.995 114.89 -28
-66.459 116.89 -28
-69.923 118.89 -28
-73.387 120.89 -28
-76.851 122.89 -28
-80.315 124.89 -28
-83.779 126.89 -28
-87.244 128.89 -28
-97.636 134.89 -28
-101.1 136.89 -28
-108.03 140.89 -28
-111.49 142.89 -28
-118.42 146.89 -28
-121.88 148.89 -28
-125.35 150.89 -28
151.78 -9.1103 -24
148.32 -7.1103 -24
144.85 -5.1103 -24
141.39 -3.1103 -24
137.92 -1.1103 -24
134.46 0.88973 -24
130.99 2.8897 -24
120.6 8.8897 -24
117.14 10.89 -24
113.67 12.89 -24
110.21 14.89 -24
106.75 16.89 -24
103.28 18.89 -24
99.818 20.89 -24
96.354 22.89 -24
92.89 24.89 -24
89.426 26.89 -24
85.962 28.89 -24
82.497 30.89 -24
79.033 32.89 -24
75.569 34.89 -24
72.105 36.89 -24
68.641 38.89 -24
65.177 40.89 -24
61.713 42.89 -24
58.249 44.89 -24
54.785 46.89 -24
51.321 48.89 -24
44.392 52.89 -24
40.928 54.89 -24
37.464 56.89 -24
34 58.89 -24
30.536 60.89 -24
27.072 62.89 -24
23.608 64.89 -24
20.144 66.89 -24
16.679 68.89 -24
9.7513 72.89 -24
6.2872 74.89 -24
2.8231 76.89 -24
-0.64102 78.89 -24
-4.1051 80.89 -24
-7.5692 82.89 -24
-11.033 84.89 -24
-14.497 86.89 -24
-28.354 94.89 -24
-31.818 96.89 -24
-35.282 98.89 -24
-38.746 100.89 -24
-42.21 102.89 -24
-45.674 104.89 -24
-49.138 106.89 -24
-66.459 116.89 -24
-69.923 118.89 -24
-73.387 120.89 -24
-76.851 122.89 -24
-80.315 124.89 -24
-83.779 126.89 -24
-97.636 134.89 -24
-101.1 136.89 -24
-108.03 140.89 -24
-111.49 142.89 -24
-114.96 144.89 -24
-118.42 146.89 -24
-121.88 148.89 -24
-125.35 150.89 -24
155.24 -11.11 -20
151.78 -9.1103 -20
148.32 -7.1103 -20
144.85 -5.1103 -20
141.39 -3.1103 -20
137.92 -1.1103 -20
130.99 2.8897 -20
127.53 4.8897 -20
117.14 10.89 -20
113.67 12.89 -20
110.21 14.89 -20
106.75 16.89 -20
103.28 18.89 -20
99.818 20.89 -20
96.354 22.89 -20
92.89 24.89 -20
89.426 26.89 -20
79.033 32.89 -20
75.569 34.89 -20
72.105 36.89 -20
68.641 38.89 -20
65.177 40.89 -20
61.713 42.89 -20
58.249 44.89 -20
54.785 46.89 -20
40.928 54.89 -20
37.464 56.89 -20
34 58.89 -20
30.536 60.89 -20
27.072 62.89 -20
23.608 64.89 -20
20.144 66.89 -20
6.2872 74.89 -20
2.8231 76.89 -20
-0.64102 78.89 -20
-4.1051 80.89 -20
-7.5692 82.89 -20
-11.033 84.89 -20
-14.497 86.89 -20
-35.282 98.89 -20
-38.746 100.89 -20
-42.21 102.89 -20
-45.674 104.89 -20
-97.636 134.89 -20
-101.1 136.89 -20
-104.56 138.89 -20
-114.96 144.89 -20
-118.42 146.89 -20
-121.88 148.89 -20
-125.35 150.89 -20
-135.74 156.89 -20
-139.21 158.89 -20
155.24 -11.11 -16
151.78 -9.1103 -16
148.32 -7.1103 -16
141.39 -3.1103 -16
137.92 -1.1103 -16
134.46 0.88973 -16
130.99 2.8897 -16
127.53 4.8897 -16
113.67 12.89 -16
110.21 14.89 -16
106.75 16.89 -16
103.28 18.89 -16
99.818 20.89 -16
96.354 22.89 -16
92.89 24.89 -16
75.569 34.89 -16
72.105 36.89 -16
68.641 38.89 -16
65.177 40.89 -16
61.713 42.89 -16
58.249 44.89 -16
37.464 56.89 -16
34 58.89 -16
30.536 60.89 -16
27.072 62.89 -16
-101.1 136.89 -16
-104.56 138.89 -16
-108.03 140.89 -16
-111.49 142.89 -16
-114.96 144.89 -16
-118.42 146.89 -16
-121.88 148.89 -16
-125.35 150.89 -16
-132.28 154.89 -16
-135.74 156.89 -16
155.24 -11.11 -12
151.78 -9.1103 -12
148.32 -7.1103 -12
141.39 -3.1103 -12
137.92 -1.1103 -12
134.46 0.88973 -12
130.99 2.8897 -12
127.53 4.8897 -12
110.21 14.89 -12
106.75 16.89 -12
103.28 18.89 -12
99.818 20.89 -12
-104.56 138.89 -12
-108.03 140.89 -12
-111.49 142.89 -12
-114.96 144.89 -12
-118.42 146.89 -12
-121.88 148.89 -12
-128.81 152.89 -12
-132.28 154.89 -12
155.24 -11.11 -8
151.78 -9.1103 -8
148.32 -7.1103 -8
144.85 -5.1103 -8
141.39 -3.1103 -8
137.92 -1.1103 -8
130.99 2.8897 -8
127.53 4.8897 -8
-56.067 110.89 -8
-66.459 116.89 -8
-69.923 118.89 -8
-73.387 120.89 -8
-76.851 122.89 -8
-80.315 124.89 -8
-83.779 126.89 -8
-87.244 128.89 -8
-90.708 130.89 -8
-94.172 132.89 -8
-97.636 134.89 -8
-101.1 136.89 -8
-104.56 138.89 -8
-108.03 140.89 -8
-111.49 142.89 -8
-114.96 144.89 -8
-121.88 148.89 -8
-125.35 150.89 -8
-128.81 152.89 -8
155.24 -11.11 -4
151.78 -9.1103 -4
148.32 -7.1103 -4
144.85 -5.1103 -4
141.39 -3.1103 -4
137.92 -1.1103 -4
134.46 0.88973 -4
130.99 2.8897 -4
127.53 4.8897 -4
9.7513 72.89 -4
6.2872 74.89 -4
2.8231 76.89 -4
-0.64102 78.89 -4
-4.1051 80.89 -4
-7.5692 82.89 -4
-11.033 84.89 -4
-14.497 86.89 -4
-17.962 88.89 -4
-21.426 90.89 -4
-24.89 92.89 -4
-28.354 94.89 -4
-31.818 96.89 -4
-35.282 98.89 -4
-38.746 100.89 -4
-42.21 102.89 -4
-45.674 104.89 -4
-49.138 106.89 -4
-52.603 108.89 -4
-56.067 110.89 -4
-59.531 112.89 -4
-62.995 114.89 -4
-66.459 116.89 -4
-69.923 118.89 -4
-73.387 120.89 -4
-76.851 122.89 -4
-80.315 124.89 -4
-83.779 126.89 -4
-87.244 128.89 -4
-90.708 130.89 -4
-94.172 132.89 -4
-97.636 134.89 -4
-101.1 136.89 -4
-104.56 138.89 -4
-108.03 140.89 -4
-111.49 142.89 -4
-114.96 144.89 -4
-118.42 146.89 -4
-121.88 148.89 -4
148.32 -7.1103 -8.0827e-015
144.85 -5.1103 -7.8377e-015
141.39 -3.1103 -7.5928e-015
137.92 -1.1103 -7.3479e-015
134.46 0.88973 -7.103e-015
130.99 2.8897 -6.858e-015
75.569 34.89 -2.9392e-015
72.105 36.89 -2.6942e-015
68.641 38.89 -2.4493e-015
65.177 40.89 -2.2044e-015
61.713 42.89 -1.9594e-015
58.249 44.89 -1.7145e-015
54.785 46.89 -1.4696e-015
51.321 48.89 -1.2246e-015
47.856 50.89 -9.7972e-016
44.392 52.89 -7.3479e-016
40.928 54.89 -4.8986e-016
37.464 56.89 -2.4493e-016
34 58.89 0
30.536 60.89 2.4493e-016
27.072 62.89 4.8986e-016
23.608 64.89 7.3479e-016
20.144 66.89 9.7972e-016
16.679 68.89 1.2246e-015
13.215 70.89 1.4696e-015
9.7513 72.89 1.7145e-015
6.2872 74.89 1.9594e-015
2.8231 76.89 2.2044e-015
-0.64102 78.89 2.4493e-015
-4.1051 80.89 2.6942e-015
-7.5692 82.89 2.9392e-015
-11.033 84.89 3.1841e-015
-14.497 86.89 3.429e-015
-17.962 88.89 3.6739e-015
-21.426 90.89 3.9189e-015
-24.89 92.89 4.1638e-015
-28.354 94.89 4.4087e-015
-31.818 96.89 4.6537e-015
-35.282 98.89 4.8986e-015
-38.746 100.89 5.1435e-015
-42.21 102.89 5.3884e-015
-45.674 104.89 5.6334e-015
-49.138 106.89 5.8783e-015
-52.603 108.89 6.1232e-015
-56.067 110.89 6.3682e-015
-90.708 130.89 8.8175e-015
-94.172 132.89 9.0624e-015
-97.636 134.89 9.3073e-015
-101.1 136.89 9.5522e-015
-104.56 138.89 9.7972e-015
141.39 -3.1103 4
137.92 -1.1103 4
134.46 0.88973 4
130.99 2.8897 4
127.53 4.8897 4
124.07 6.8897 4
120.6 8.8897 4
117.14 10.89 4
113.67 12.89 4
110.21 14.89 4
106.75 16.89 4
103.28 18.89 4
99.818 20.89 4
96.354 22.89 4
92.89 24.89 4
89.426 26.89 4
85.962 28.89 4
82.497 30.89 4
79.033 32.89 4
75.569 34.89 4
72.105 36.89 4
68.641 38.89 4
65.177 40.89 4
61.713 42.89 4
58.249 44.89 4
54.785 46.89 4
51.321 48.89 4
47.856 50.89 4
44.392 52.89 4
40.928 54.89 4
37.464 56.89 4
34 58.89 4
30.536 60.89 4
27.072 62.89 4
23.608 64.89 4
20.144 66.89 4
16.679 68.89 4
-69.923 118.89 4
-73.387 120.89 4
-76.851 122.89 4
-80.315 124.89 4
-83.779 126.89 4
-87.244 128.89 4
186.42 -29.11 8
130.99 2.8897 8
127.53 4.8897 8
124.07 6.8897 8
120.6 8.8897 8
117.14 10.89 8
113.67 12.89 8
110.21 14.89 8
106.75 16.89 8
103.28 18.89 8
99.818 20.89 8
96.354 22.89 8
92.89 24.89 8
89.426 26.89 8
85.962 28.89 8
82.497 30.89 8
-31.818 96.89 8
-35.282 98.89 8
-38.746 100.89 8
-42.21 102.89 8
-45.674 104.89 8
-49.138 106.89 8
-52.603 108.89 8
-56.067 110.89 8
-59.531 112.89 8
-62.995 114.89 8
-66.459 116.89 8
-73.387 120.89 8
189.88 -31.11 12
186.42 -29.11 12
54.785 46.89 12
51.321 48.89 12
47.856 50.89 12
44.392 52.89 12
40.928 54.89 12
37.464 56.89 12
34 58.89 12
30.536 60.89 12
27.072 62.89 12
23.608 64.89 12
20.144 66.89 12
16.679 68.89 12
13.215 70.89 12
9.7513 72.89 12
6.2872 74.89 12
2.8231 76.89 12
-0.64102 78.89 12
-4.1051 80.89 12
-7.5692 82.89 12
-11.033 84.89 12
-14.497 86.89 12
-17.962 88.89 12
-21.426 90.89 12
-24.89 92.89 12
-28.354 94.89 12
-31.818 96.89 12
189.88 -31.11 16
99.818 20.89 16
96.354 22.89 16
92.89 24.89 16
89.426 26.89 16
85.962 28.89 16
82.497 30.89 16
79.033 32.89 16
75.569 34.89 16
72.105 36.89 16
68.641 38.89 16
65.177 40.89 16
61.713 42.89 16
58.249 44.89 16
54.785 46.89 16
51.321 48.89 16
47.856 50.89 16
44.392 52.89 16
40.928 54.89 16
37.464 56.89 16
34 58.89 16
30.536 60.89 16
27.072 62.89 16
23.608 64.89 16
20.144 66.89 16
16.679 68.89 16
13.215 70.89 16
9.7513 72.89 16
2.8231 76.89 16
-0.64102 78.89 16
-4.1051 80.89 16
-7.5692 82.89 16
-11.033 84.89 16
186.42 -29.11 20
169.1 -19.11 20
165.64 -17.11 20
162.17 -15.11 20
158.71 -13.11 20
155.24 -11.11 20
151.78 -9.1103 20
148.32 -7.1103 20
144.85 -5.1103 20
141.39 -3.1103 20
137.92 -1.1103 20
134.46 0.88973 20
130.99 2.8897 20
127.53 4.8897 20
124.07 6.8897 20
120.6 8.8897 20
117.14 10.89 20
113.67 12.89 20
110.21 14.89 20
106.75 16.89 20
103.28 18.89 20
99.818 20.89 20
96.354 22.89 20
92.89 24.89 20
89.426 26.89 20
85.962 28.89 20
82.497 30.89 20
79.033 32.89 20
72.105 36.89 20
68.641 38.89 20
65.177 40.89 20
61.713 42.89 20
58.249 44.89 20
54.785 46.89 20
51.321 48.89 20
23.608 64.89 20
20.144 66.89 20
16.679 68.89 20
13.215 70.89 20
9.7513 72.89 20
6.2872 74.89 20
2.8231 76.89 20
-0.64102 78.89 20
-4.1051 80.89 20
-7.5692 82.89 20
-11.033 84.89 20
-14.497 86.89 20
-17.962 88.89 20
186.42 -29.11 24
182.96 -27.11 24
179.49 -25.11 24
176.03 -23.11 24
172.56 -21.11 24
169.1 -19.11 24
165.64 -17.11 24
162.17 -15.11 24
158.71 -13.11 24
155.24 -11.11 24
151.78 -9.1103 24
148.32 -7.1103 24
144.85 -5.1103 24
141.39 -3.1103 24
137.92 -1.1103 24
134.46 0.88973 24
130.99 2.8897 24
127.53 4.8897 24
124.07 6.8897 24
120.6 8.8897 24
96.354 22.89 24
92.89 24.89 24
89.426 26.89 24
85.962 28.89 24
82.497 30.89 24
79.033 32.89 24
75.569 34.89 24
72.105 36.89 24
68.641 38.89 24
65.177 40.89 24
23.608 64.89 24
20.144 66.89 24
13.215 70.89 24
9.7513 72.89 24
6.2872 74.89 24
2.8231 76.89 24
-0.64102 78.89 24
-4.1051 80.89 24
-7.5692 82.89 24
-11.033 84.89 24
-14.497 86.89 24
-17.962 88.89 24
-21.426 90.89 24
-24.89 92.89 24
-28.354 94.89 24
-31.818 96.89 24
186.42 -29.11 28
182.96 -27.11 28
103.28 18.89 28
99.818 20.89 28
96.354 22.89 28
92.89 24.89 28
89.426 26.89 28
79.033 32.89 28
75.569 34.89 28
72.105 36.89 28
68.641 38.89 28
65.177 40.89 28
23.608 64.89 28
20.144 66.89 28
16.679 68.89 28
13.215 70.89 28
9.7513 72.89 28
-0.64102 78.89 28
-4.1051 80.89 28
-14.497 86.89 28
-17.962 88.89 28
-21.426 90.89 28
-24.89 92.89 28
-28.354 94.89 28
-31.818 96.89 28
103.28 18.89 32
99.818 20.89 32
96.354 22.89 32
92.89 24.89 32
89.426 26.89 32
79.033 32.89 32
75.569 34.89 32
72.105 36.89 32
68.641 38.89 32
65.177 40.89 32
47.856 50.89 32
44.392 52.89 32
40.928 54.89 32
37.464 56.89 32
34 58.89 32
30.536 60.89 32
27.072 62.89 32
23.608 64.89 32
20.144 66.89 32
16.679 68.89 32
13.215 70.89 32
9.7513 72.89 32
-0.64102 78.89 32
-4.1051 80.89 32
-7.5692 82.89 32
-11.033 84.89 32
-14.497 86.89 32
-17.962 88.89 32
-21.426 90.89 32
-24.89 92.89 32
-28.354 94.89 32
-31.818 96.89 32
103.28 18.89 36
99.818 20.89 36
96.354 22.89 36
92.89 24.89 36
89.426 26.89 36
79.033 32.89 36
75.569 34.89 36
72.105 36.89 36
68.641 38.89 36
65.177 40.89 36
47.856 50.89 36
44.392 52.89 36
40.928 54.89 36
37.464 56.89 36
34 58.89 36
30.536 60.89 36
16.679 68.89 36
9.7513 72.89 36
6.2872 74.89 36
2.8231 76.89 36
-0.64102 78.89 36
-4.1051 80.89 36
-7.5692 82.89 36
-11.033 84.89 36
-14.497 86.89 36
-17.962 88.89 36
-21.426 90.89 36
-24.89 92.89 36
103.28 18.89 40
99.818 20.89 40
96.354 22.89 40
92.89 24.89 40
89.426 26.89 40
79.033 32.89 40
75.569 34.89 40
72.105 36.89 40
68.641 38.89 40
65.177 40.89 40
44.392 52.89 40
37.464 56.89 40
34 58.89 40
30.536 60.89 40
27.072 62.89 40
23.608 64.89 40
20.144 66.89 40
16.679 68.89 40
9.7513 72.89 40
6.2872 74.89 40
2.8231 76.89 40
-0.64102 78.89 40
-4.1051 80.89 40
-7.5692 82.89 40
-11.033 84.89 40
103.28 18.89 44
99.818 20.89 44
96.354 22.89 44
92.89 24.89 44
89.426 26.89 44
79.033 32.89 44
75.569 34.89 44
72.105 36.89 44
68.641 38.89 44
65.177 40.89 44
58.249 44.89 44
54.785 46.89 44
51.321 48.89 44
47.856 50.89 44
44.392 52.89 44
37.464 56.89 44
34 58.89 44
30.536 60.89 44
27.072 62.89 44
23.608 64.89 44
20.144 66.89 44
16.679 68.89 44
13.215 70.89 44
9.7513 72.89 44
6.2872 74.89 44
2.8231 76.89 44
103.28 18.89 48
99.818 20.89 48
96.354 22.89 48
92.89 24.89 48
89.426 26.89 48
79.033 32.89 48
75.569 34.89 48
72.105 36.89 48
68.641 38.89 48
65.177 40.89 48
61.713 42.89 48
58.249 44.89 48
54.785 46.89 48
47.856 50.89 48
44.392 52.89 48
37.464 56.89 48
34 58.89 48
30.536 60.89 48
27.072 62.89 48
23.608 64.89 48
20.144 66.89 48
103.28 18.89 52
99.818 20.89 52
96.354 22.89 52
92.89 24.89 52
89.426 26.89 52
85.962 28.89 52
82.497 30.89 52
79.033 32.89 52
75.569 34.89 52
72.105 36.89 52
44.392 52.89 52
30.536 60.89 52
27.072 62.89 52
23.608 64.89 52
20.144 66.89 52
44.392 52.89 56
40.928 54.89 56
37.464 56.89 56
34 58.89 56
30.536 60.89 56
-30.354 91.426 -64
-33.818 93.426 -64
-37.282 95.426 -64
-40.746 97.426 -64
-44.21 99.426 -64
-47.674 101.43 -64
-51.138 103.43 -64
-54.603 105.43 -64
-58.067 107.43 -64
-61.531 109.43 -64
-64.995 111.43 -64
-68.459 113.43 -64
-71.923 115.43 -64
-75.387 117.43 -64
-78.851 119.43 -64
-82.315 121.43 -64
-85.779 123.43 -64
-89.244 125.43 -64
42.392 49.426 -60
35.464 53.426 -60
32 55.426 -60
28.536 57.426 -60
25.072 59.426 -60
21.608 61.426 -60
18.144 63.426 -60
14.679 65.426 -60
11.215 67.426 -60
7.7513 69.426 -60
4.2872 71.426 -60
0.82309 73.426 -60
-2.641 75.426 -60
-6.1051 77.426 -60
-9.5692 79.426 -60
-13.033 81.426 -60
-16.497 83.426 -60
-19.962 85.426 -60
-23.426 87.426 -60
-26.89 89.426 -60
-30.354 91.426 -60
-33.818 93.426 -60
-37.282 95.426 -60
-40.746 97.426 -60
-44.21 99.426 -60
-47.674 101.43 -60
-51.138 103.43 -60
-54.603 105.43 -60
-58.067 107.43 -60
-61.531 109.43 -60
-64.995 111.43 -60
-68.459 113.43 -60
-71.923 115.43 -60
-75.387 117.43 -60
-78.851 119.43 -60
-82.315 121.43 -60
-85.779 123.43 -60
-89.244 125.43 -60
-92.708 127.43 -60
-96.172 129.43 -60
-99.636 131.43 -60
108.21 11.426 -56
101.28 15.426 -56
97.818 17.426 -56
94.354 19.426 -56
90.89 21.426 -56
87.426 23.426 -56
83.962 25.426 -56
80.497 27.426 -56
77.033 29.426 -56
73.569 31.426 -56
70.105 33.426 -56
66.641 35.426 -56
63.177 37.426 -56
59.713 39.426 -56
56.249 41.426 -56
52.785 43.426 -56
49.321 45.426 -56
45.856 47.426 -56
42.392 49.426 -56
38.928 51.426 -56
35.464 53.426 -56
32 55.426 -56
28.536 57.426 -56
25.072 59.426 -56
21.608 61.426 -56
18.144 63.426 -56
14.679 65.426 -56
11.215 67.426 -56
7.7513 69.426 -56
4.2872 71.426 -56
0.82309 73.426 -56
-2.641 75.426 -56
-6.1051 77.426 -56
-9.5692 79.426 -56
-13.033 81.426 -56
-16.497 83.426 -56
-19.962 85.426 -56
-33.818 93.426 -56
-37.282 95.426 -56
-40.746 97.426 -56
-44.21 99.426 -56
-47.674 101.43 -56
-51.138 103.43 -56
-64.995 111.43 -56
-68.459 113.43 -56
-85.779 123.43 -56
-89.244 125.43 -56
-92.708 127.43 -56
-96.172 129.43 -56
-99.636 131.43 -56
-103.1 133.43 -56
-106.56 135.43 -56
118.6 5.4256 -52
115.14 7.4256 -52
111.67 9.4256 -52
108.21 11.426 -52
104.75 13.426 -52
101.28 15.426 -52
97.818 17.426 -52
94.354 19.426 -52
90.89 21.426 -52
87.426 23.426 -52
83.962 25.426 -52
80.497 27.426 -52
77.033 29.426 -52
73.569 31.426 -52
70.105 33.426 -52
66.641 35.426 -52
63.177 37.426 -52
59.713 39.426 -52
56.249 41.426 -52
52.785 43.426 -52
49.321 45.426 -52
38.928 51.426 -52
35.464 53.426 -52
32 55.426 -52
28.536 57.426 -52
25.072 59.426 -52
21.608 61.426 -52
18.144 63.426 -52
7.7513 69.426 -52
4.2872 71.426 -52
0.82309 73.426 -52
-13.033 81.426 -52
-16.497 83.426 -52
-30.354 91.426 -52
-33.818 93.426 -52
-51.138 103.43 -52
-54.603 105.43 -52
-64.995 111.43 -52
-89.244 125.43 -52
-92.708 127.43 -52
-99.636 131.43 -52
-103.1 133.43 -52
-106.56 135.43 -52
-110.03 137.43 -52
-113.49 139.43 -52
125.53 1.4256 -48
122.07 3.4256 -48
118.6 5.4256 -48
115.14 7.4256 -48
111.67 9.4256 -48
108.21 11.426 -48
104.75 13.426 -48
101.28 15.426 -48
97.818 17.426 -48
94.354 19.426 -48
90.89 21.426 -48
77.033 29.426 -48
73.569 31.426 -48
59.713 39.426 -48
56.249 41.426 -48
52.785 43.426 -48
42.392 49.426 -48
38.928 51.426 -48
18.144 63.426 -48
7.7513 69.426 -48
4.2872 71.426 -48
-19.962 85.426 -48
-26.89 89.426 -48
-54.603 105.43 -48
-58.067 107.43 -48
-61.531 109.43 -48
-64.995 111.43 -48
-75.387 117.43 -48
-78.851 119.43 -48
-92.708 127.43 -48
-110.03 137.43 -48
-113.49 139.43 -48
-116.96 141.43 -48
128.99 -0.57437 -44
125.53 1.4256 -44
122.07 3.4256 -44
115.14 7.4256 -44
111.67 9.4256 -44
90.89 21.426 -44
87.426 23.426 -44
80.497 27.426 -44
77.033 29.426 -44
56.249 41.426 -44
52.785 43.426 -44
49.321 45.426 -44
45.856 47.426 -44
42.392 49.426 -44
14.679 65.426 -44
7.7513 69.426 -44
-6.1051 77.426 -44
-19.962 85.426 -44
-23.426 87.426 -44
-26.89 89.426 -44
-37.282 95.426 -44
-40.746 97.426 -44
-44.21 99.426 -44
-58.067 107.43 -44
-61.531 109.43 -44
-75.387 117.43 -44
-78.851 119.43 -44
-82.315 121.43 -44
-92.708 127.43 -44
-113.49 139.43 -44
-116.96 141.43 -44
-120.42 143.43 -44
135.92 -4.5744 -40
132.46 -2.5744 -40
128.99 -0.57437 -40
125.53 1.4256 -40
115.14 7.4256 -40
87.426 23.426 -40
80.497 27.426 -40
66.641 35.426 -40
63.177 37.426 -40
52.785 43.426 -40
49.321 45.426 -40
45.856 47.426 -40
32 55.426 -40
28.536 57.426 -40
25.072 59.426 -40
14.679 65.426 -40
11.215 67.426 -40
7.7513 69.426 -40
-2.641 75.426 -40
-6.1051 77.426 -40
-9.5692 79.426 -40
-19.962 85.426 -40
-23.426 87.426 -40
-26.89 89.426 -40
-37.282 95.426 -40
-40.746 97.426 -40
-44.21 99.426 -40
-47.674 101.43 -40
-58.067 107.43 -40
-61.531 109.43 -40
-75.387 117.43 -40
-78.851 119.43 -40
-82.315 121.43 -40
-92.708 127.43 -40
-106.56 135.43 -40
-110.03 137.43 -40
-113.49 139.43 -40
-116.96 141.43 -40
-120.42 143.43 -40
-123.88 145.43 -40
139.39 -6.5744 -36
135.92 -4.5744 -36
132.46 -2.5744 -36
128.99 -0.57437 -36
118.6 5.4256 -36
115.14 7.4256 -36
104.75 13.426 -36
101.28 15.426 -36
97.818 17.426 -36
87.426 23.426 -36
83.962 25.426 -36
80.497 27.426 -36
70.105 33.426 -36
66.641 35.426 -36
63.177 37.426 -36
49.321 45.426 -36
45.856 47.426 -36
35.464 53.426 -36
32 55.426 -36
28.536 57.426 -36
25.072 59.426 -36
14.679 65.426 -36
11.215 67.426 -36
7.7513 69.426 -36
-2.641 75.426 -36
-6.1051 77.426 -36
-9.5692 79.426 -36
-19.962 85.426 -36
-23.426 87.426 -36
-26.89 89.426 -36
-37.282 95.426 -36
-40.746 97.426 -36
-44.21 99.426 -36
-58.067 107.43 -36
-61.531 109.43 -36
-64.995 111.43 -36
-75.387 117.43 -36
-78.851 119.43 -36
-92.708 127.43 -36
-103.1 133.43 -36
-106.56 135.43 -36
-110.03 137.43 -36
-113.49 139.43 -36
-116.96 141.43 -36
-120.42 143.43 -36
-123.88 145.43 -36
142.85 -8.5744 -32
139.39 -6.5744 -32
135.92 -4.5744 -32
118.6 5.4256 -32
115.14 7.4256 -32
104.75 13.426 -32
101.28 15.426 -32
97.818 17.426 -32
87.426 23.426 -32
83.962 25.426 -32
80.497 27.426 -32
70.105 33.426 -32
66.641 35.426 -32
63.177 37.426 -32
49.321 45.426 -32
45.856 47.426 -32
32 55.426 -32
28.536 57.426 -32
25.072 59.426 -32
14.679 65.426 -32
7.7513 69.426 -32
-2.641 75.426 -32
-6.1051 77.426 -32
-19.962 85.426 -32
-23.426 87.426 -32
-26.89 89.426 -32
-54.603 105.43 -32
-58.067 107.43 -32
-61.531 109.43 -32
-64.995 111.43 -32
-89.244 125.43 -32
-92.708 127.43 -32
-99.636 131.43 -32
-103.1 133.43 -32
-106.56 135.43 -32
-110.03 137.43 -32
-113.49 139.43 -32
-116.96 141.43 -32
-120.42 143.43 -32
-123.88 145.43 -32
-127.35 147.43 -32
146.32 -10.574 -28
142.85 -8.5744 -28
139.39 -6.5744 -28
135.92 -4.5744 -28
132.46 -2.5744 -28
128.99 -0.57437 -28
118.6 5.4256 -28
115.14 7.4256 -28
104.75 13.426 -28
101.28 15.426 -28
97.818 17.426 -28
87.426 23.426 -28
83.962 25.426 -28
80.497 27.426 -28
66.641 35.426 -28
63.177 37.426 -28
49.321 45.426 -28
45.856 47.426 -28
42.392 49.426 -28
14.679 65.426 -28
7.7513 69.426 -28
4.2872 71.426 -28
-19.962 85.426 -28
-26.89 89.426 -28
-30.354 91.426 -28
-54.603 105.43 -28
-64.995 111.43 -28
-68.459 113.43 -28
-85.779 123.43 -28
-89.244 125.43 -28
-99.636 131.43 -28
-103.1 133.43 -28
-106.56 135.43 -28
-110.03 137.43 -28
-113.49 139.43 -28
-116.96 141.43 -28
-120.42 143.43 -28
-123.88 145.43 -28
-127.35 147.43 -28
149.78 -12.574 -24
146.32 -10.574 -24
142.85 -8.5744 -24
139.39 -6.5744 -24
135.92 -4.5744 -24
128.99 -0.57437 -24
118.6 5.4256 -24
115.14 7.4256 -24
87.426 23.426 -24
80.497 27.426 -24
77.033 29.426 -24
52.785 43.426 -24
49.321 45.426 -24
42.392 49.426 -24
38.928 51.426 -24
18.144 63.426 -24
4.2872 71.426 -24
-13.033 81.426 -24
-16.497 83.426 -24
-19.962 85.426 -24
-30.354 91.426 -24
-33.818 93.426 -24
-37.282 95.426 -24
-40.746 97.426 -24
-44.21 99.426 -24
-47.674 101.43 -24
-51.138 103.43 -24
-71.923 115.43 -24
-75.387 117.43 -24
-78.851 119.43 -24
-82.315 121.43 -24
-85.779 123.43 -24
-99.636 131.43 -24
-103.1 133.43 -24
-106.56 135.43 -24
-116.96 141.43 -24
-120.42 143.43 -24
-123.88 145.43 -24
-127.35 147.43 -24
153.24 -14.574 -20
149.78 -12.574 -20
146.32 -10.574 -20
142.85 -8.5744 -20
139.39 -6.5744 -20
135.92 -4.5744 -20
132.46 -2.5744 -20
125.53 1.4256 -20
115.14 7.4256 -20
111.67 9.4256 -20
90.89 21.426 -20
87.426 23.426 -20
77.033 29.426 -20
73.569 31.426 -20
56.249 41.426 -20
52.785 43.426 -20
38.928 51.426 -20
35.464 53.426 -20
32 55.426 -20
28.536 57.426 -20
25.072 59.426 -20
21.608 61.426 -20
18.144 63.426 -20
0.82309 73.426 -20
-2.641 75.426 -20
-6.1051 77.426 -20
-9.5692 79.426 -20
-13.033 81.426 -20
-37.282 95.426 -20
-40.746 97.426 -20
-44.21 99.426 -20
